# .PCD v0.7 - Point Cloud Data file format
VERSION 0.7
FIELDS x y z
SIZE 4 4 4
TYPE F F F
COUNT 1 1 1
WIDTH 1579
HEIGHT 1
VIEWPOINT 0 0 0 1 0 0 0
POINTS 1579
DATA ascii
-0.12670904 7.4878502 5.7981396
-0.065143108 7.4911866 5.7992058
-0.01042372 7.4938049 5.7903981
0.044295758 7.4964142 5.78159
0.092174917 7.4983063 5.7629166
0.14005309 7.5001979 5.7442417
0.18109104 7.5013633 5.7157021
0.22212902 7.5025282 5.6871619
0.26316699 7.5036936 5.6586218
0.29736474 7.5041318 5.6202168
0.33156148 7.5045695 5.5818105
0.37944064 7.5064621 5.5631371
0.4341653 7.5090804 5.554337
0.48888478 7.5116901 5.5455289
0.54930818 7.5143933 5.5449262
0.61619174 7.5176163 5.5536337
0.67661506 7.52033 5.5530319
0.73703849 7.5230327 5.5524287
0.79746807 7.5257363 5.5518351
0.85142595 7.5279303 5.5419154
0.90538907 7.5301242 5.5320029
0.95935279 7.5323181 5.52209
1.0003908 7.533483 5.4935503
1.0478884 7.5351677 5.4743199
1.0953866 7.5368419 5.4550905
1.14289 7.5385265 5.4358687
1.183928 7.5396919 5.4073286
1.2314261 7.5413656 5.3880982
1.2853892 7.543561 5.3781857
1.3458132 7.5462642 5.3775835
1.4062361 7.5489769 5.3769808
1.4602002 7.5511708 5.3670692
1.5076978 7.552846 5.3478389
1.5616616 7.5550399 5.3379273
1.6091591 7.5567245 5.318697
1.656657 7.5583987 5.2994666
1.7041608 7.5600834 5.2802448
1.7516588 7.561758 5.2610154
1.7991567 7.5634322 5.2417846
1.8401947 7.5645971 5.2132444
1.8876982 7.5662818 5.1940231
1.9351962 7.5679574 5.1747923
1.969774 7.5686121 5.1369429
2.010812 7.5697775 5.1084032
2.0453846 7.5704226 5.0705447
2.0864224 7.5715876 5.0420051
2.1274605 7.572753 5.0134649
2.1684985 7.5739179 4.9849253
2.2095363 7.5750833 4.9563851
2.2570398 7.5767679 4.9371634
2.2916121 7.5774131 4.8993053
2.3391159 7.5790982 4.8800836
2.3866138 7.5807734 4.8608527
2.4276519 7.5819387 4.8323131
2.4686897 7.5831037 4.8037729
2.509728 7.5842686 4.7752333
2.5507658 7.585434 4.7466931
2.5918038 7.5865989 4.718153
2.6263814 7.587254 4.6803041
2.6609542 7.5878992 4.6424456
2.6890717 7.5880461 4.5952864
2.7236438 7.5886917 4.5574279
2.7582221 7.5893474 4.5195785
2.7992604 7.5905128 4.4910383
2.8338382 7.5911579 4.4531889
2.881336 7.5928431 4.433959
2.922374 7.594008 4.4054184
2.9569526 7.5946531 4.367569
2.9979901 7.5958185 4.3390293
3.0454879 7.5975032 4.3197989
3.0865259 7.5986686 4.2912588
3.1275637 7.5998335 4.2627192
3.1686015 7.6009984 4.2341795
3.2096398 7.6021638 4.2056389
3.2506778 7.6033287 4.1770992
3.2917156 7.6044941 4.1485596
3.3262939 7.6051393 4.1107092
3.3608663 7.6057944 4.0728502
3.4019039 7.6069598 4.0443106
3.4300222 7.6070957 3.9971519
3.4645948 7.6077418 3.9592936
3.4991724 7.6083975 3.9214432
3.5337508 7.6090426 3.883595
3.5683231 7.6096992 3.8457363
3.6093612 7.6108642 3.8171961
3.6439393 7.6115103 3.7793467
3.6785166 7.612165 3.7414966
3.7130895 7.6128111 3.7036381
3.7412074 7.612957 3.6564796
3.7757802 7.6136022 3.6186211
3.8038921 7.613739 3.5714536
3.8384702 7.6143947 3.5336034
3.8730485 7.6150403 3.4957535
3.9011607 7.6151772 3.4485867
3.9292729 7.6153131 3.4014192
3.9638503 7.6159687 3.3635688
3.9984295 7.6166143 3.3257191
4.0200753 7.616241 3.2692327
4.0481939 7.6163774 3.2220736
4.0763063 7.6165137 3.1749051
4.1108842 7.6171694 3.1370556
4.1389971 7.6173058 3.0898888
4.167109 7.6174417 3.0427213
4.1887612 7.6170692 2.9862423
4.2164989 7.6169877 2.9385266
4.2438498 7.6167088 2.8902469
4.2643647 7.6157031 2.8321085
4.2848811 7.6146874 2.7739708
4.3190784 7.6151347 2.7355652
4.3464293 7.6148467 2.6872852
4.3737855 7.6145682 2.6390142
4.4011421 7.6142788 2.5907416
4.4216523 7.6132736 2.5325952
4.4421678 7.612268 2.4744577
4.4695182 7.6119795 2.426177
4.4900336 7.6109734 2.3680401
4.5173855 7.6106949 2.3197598
4.5379004 7.6096787 2.261622
4.5584164 7.6086736 2.2034836
4.5789261 7.6076674 2.1453388
4.5925956 7.6059361 2.0773258
4.613111 7.6049294 2.0191886
4.626781 7.6031971 1.9511764
4.6404552 7.6014643 1.883172
4.6609664 7.6004581 1.825027
4.6609535 7.5972719 1.7372818
4.6746292 7.5955391 1.6692791
4.6746168 7.5923634 1.5815349
4.6746039 7.5891762 1.4937909
4.6814322 7.5867267 1.4159129
4.688261 7.5842671 1.3380344
4.6882491 7.5810809 1.2502904
4.6882367 7.5779052 1.1625473
4.6950712 7.5754447 1.0846777
4.6950588 7.5722685 0.99693346
4.6745191 7.5669122 0.87958288
4.6813531 7.5644517 0.80171347
4.6813407 7.5612755 0.71396971
4.6676416 7.5566444 0.60648537
4.6676288 7.5534687 0.51874113
4.6539359 7.5488381 0.41126585
4.6334014 7.5434809 0.29392433
4.5512886 7.5316114 0.087771416
4.517067 7.5248003 -0.049309731
4.4760046 7.517282 -0.19625759
4.4896793 7.5155497 -0.26426172
4.2296848 7.4848399 -0.72696114
4.2570357 7.4845614 -0.77524161
-6.8545122 7.1082878 3.5981541
-6.784482 7.1127872 3.6114388
-6.6927099 7.1197677 3.6560876
-6.5936871 7.1275921 3.7111967
-6.50916 7.1337485 3.7453933
-6.4028921 7.1423969 3.8109546
-6.31112 7.1493778 3.8556037
-6.226593 7.1555343 3.8898005
-6.1565628 7.1600347 3.903085
-6.0357924 7.1703391 3.9895663
-5.9367752 7.1781631 4.0446672
-5.8594933 7.1834869 4.0684118
-5.782218 7.1888094 4.0921488
-5.7121878 7.1932998 4.1054335
-5.6566529 7.1961312 4.097806
-5.593874 7.1997871 4.1006298
-5.5383334 7.20262 4.0930104
-5.4828053 7.205442 4.0853744
-5.4272709 7.2082753 4.0777469
-5.3717365 7.2111068 4.0701194
-5.3017063 7.2155967 4.0834036
-5.202683 7.2234106 4.1385131
-5.1254015 7.2287335 4.1622577
-5.0408802 7.2348914 4.1964464
-4.9780955 7.2385569 4.1992788
-4.9153161 7.2422128 4.2021036
-4.8597822 7.2450447 4.1944757
-4.8114929 7.2470341 4.1763954
-4.7559586 7.249866 4.1687684
-4.7004242 7.2526989 4.1611404
-4.6376448 7.2563548 4.1639643
-4.5821104 7.2591872 4.1563377
-4.5193253 7.2628431 4.1591702
-4.4163098 7.2705674 4.220016
-4.3547492 7.2738833 4.2210732
-4.2795019 7.2786331 4.2418699
-4.224782 7.2812228 4.2330618
-4.1563811 7.2852545 4.2439842
-4.1085024 7.287137 4.2253103
-4.0537825 7.2897363 4.2165012
-3.9922161 7.2930517 4.2175674
-3.9443376 7.2949238 4.1988926
-3.8896179 7.297523 4.1900845
-3.8280578 7.3008399 4.1911416
-3.7801788 7.302721 4.1724672
-3.7391407 7.3038859 4.1439271
-3.6707339 7.307919 4.1548586
-3.6160142 7.3105083 4.1460505
-3.5476134 7.3145404 4.1569724
-3.4928937 7.3171401 4.1481647
-3.4313273 7.3204565 4.14923
-3.3834488 7.3223376 4.1305556
-3.3287292 7.3249264 4.121747
-3.2808504 7.3268089 4.1030726
-3.2398124 7.3279738 4.074533
-3.1987743 7.3291392 4.0459929
-3.1440549 7.3317375 4.0371847
-2.2410002 7.4231372 5.2518334
-2.1520762 7.4293113 5.2923532
-2.0905108 7.4326267 5.2934189
-2.0289497 7.4359336 5.294476
-1.8442434 7.4521441 5.4731326
-1.7690014 7.4568839 5.4939213
-1.6937537 7.4616342 5.5147185
-1.6185117 7.4663739 5.5355062
-1.5569451 7.4696903 5.536572
-1.4817035 7.4744391 5.5573606
-1.3927743 7.4806128 5.5978894
-1.324373 7.4846463 5.6088119
-1.2628127 7.4879622 5.6098695
-1.1602018 7.4955697 5.6701293
-1.1054759 7.498168 5.6613293
-1.0302343 7.5029078 5.6821175
-0.96183324 7.5069418 5.6930404
-0.89342588 7.5109739 5.7039719
-0.83186591 7.5142803 5.7050295
-0.77714586 7.5168791 5.6962199
-0.71558595 7.520195 5.6972775
-0.65401936 7.5235109 5.6983433
-0.57877737 7.5282507 5.7191315
-0.48984805 7.5344343 5.7596607
-0.41459978 7.5391741 5.7804575
-0.3461991 7.5432067 5.7913799
-0.28463826 7.5465231 5.792438
-0.22307828 7.5498285 5.7934952
-0.16151218 7.5531445 5.79456
-0.10679215 7.5557432 5.7857523
-0.045231789 7.5590596 5.786809
0.0094873309 7.5616589 5.7780004
0.057371885 7.5635304 5.7593341
0.11209142 7.5661297 5.7505255
0.1531294 7.5672946 5.7219853
0.20100817 7.5691772 5.703311
0.24204615 7.5703425 5.6747713
0.28992492 7.5722237 5.6560969
0.31728131 7.5719552 5.6078253
0.35831922 7.5731201 5.5792856
0.40619799 7.5750027 5.5606112
0.45407677 7.5768843 5.5419374
0.5087958 7.579484 5.5331283
0.56921983 7.5821772 5.5325265
0.62963796 7.5848799 5.5319161
0.69006091 7.587574 5.5313129
0.75694513 7.5907865 5.54002
0.8109082 7.5929809 5.5301085
0.86486632 7.5951653 5.5201874
0.91882426 7.5973487 5.5102673
0.97278804 7.5995326 5.5003543
1.0202851 7.6012177 5.4811239
1.067784 7.6028924 5.4618945
1.1152872 7.6045661 5.4426723
1.1563252 7.605731 5.4141326
1.2038234 7.6074061 5.3949018
1.257781 7.6095901 5.3849802
1.3117441 7.611784 5.3750691
1.3721629 7.6144781 5.3744588
1.4325863 7.6171808 5.3738556
1.4800835 7.6188564 5.3546257
1.5340472 7.6210394 5.3447127
1.5815458 7.6227241 5.3254833
1.6355039 7.6249084 5.3155632
1.6765418 7.6260734 5.2870235
1.7240442 7.6277485 5.2678003
1.7780027 7.6299319 5.2578802
1.8255005 7.6316166 5.2386494
1.8665384 7.632782 5.2101097
1.9075763 7.6339469 5.1815701
1.9550803 7.6356215 5.1623487
1.9961182 7.6367865 5.1338086
2.0306904 7.6374421 5.0959501
2.0652685 7.6380877 5.0581002
2.1127663 7.6397724 5.0388699
2.1538043 7.6409378 5.0103302
2.1948423 7.6421027 4.9817901
2.2358801 7.6432676 4.9532504
2.2769182 7.644433 4.9247103
2.3244221 7.6461072 4.905489
2.3654602 7.6472726 4.8769493
2.406498 7.6484375 4.8484092
2.4539955 7.6501112 4.8291779
2.4950335 7.6512766 4.8006377
2.5360715 7.6524415 4.7720976
2.5771096 7.6536069 4.7435579
2.6116877 7.654263 4.7057095
2.6527257 7.6554279 4.6771693
2.6808381 7.6555643 4.6300011
2.715416 7.6562204 4.5921516
2.7499933 7.6568761 4.5543017
2.7845669 7.6575313 4.5164447
2.8191442 7.6581864 4.4785938
2.8666427 7.6598616 4.4593649
2.9012201 7.6605167 4.421514
2.9422581 7.6616821 4.3929739
2.9832959 7.662847 4.3644342
3.024334 7.664012 4.3358946
3.065372 7.6651773 4.307354
3.1128707 7.666852 4.288125
3.1539085 7.6680174 4.2595854
3.1949465 7.6691823 4.2310452
3.2359846 7.6703472 4.2025051
3.2770226 7.6715126 4.1739655
3.3115997 7.6721678 4.1361146
3.3461783 7.6728239 4.0982652
3.3872161 7.6739888 4.0697255
3.4217935 7.674634 4.0318756
3.4563658 7.6752901 3.9940176
3.4909437 7.6759462 3.9561682
3.5255227 7.6766014 3.9183183
3.5601001 7.6772575 3.8804693
3.5946784 7.6779127 3.8426189
3.629251 7.6785588 3.8047614
3.6638281 7.679214 3.7669106
3.691946 7.6793604 3.7197521
3.7265189 7.6800156 3.6818953
3.7610967 7.6806612 3.6440434
3.7892151 7.6808081 3.596885
3.8237932 7.6814628 3.5590358
3.8519049 7.6816101 3.5118675
3.8864837 7.6822553 3.4740176
3.921061 7.6829109 3.4361687
3.9491732 7.6830578 3.3890007
3.9837515 7.683713 3.3511515
4.0118694 7.6838593 3.3039923
4.0335221 7.6834855 3.2475145
4.061635 7.6836319 3.2003474
4.0962124 7.684278 3.162497
4.1243305 7.6844234 3.1153381
4.1524429 7.6845703 3.0681703
4.1805606 7.6847062 3.0210111
4.2022128 7.6843438 2.9645326
4.2295694 7.6840739 2.9162619
4.2569261 7.683805 2.8679903
4.2774358 7.6828299 2.8098454
4.2979517 7.6818442 2.7517085
4.3321481 7.6822929 2.7133019
4.3595047 7.682023 2.6650312
4.3868613 7.6817546 2.61676
4.4142113 7.6814857 2.5684812
4.4347277 7.68051 2.5103438
4.4552426 7.6795244 2.4522059
4.4825997 7.679255 2.403934
4.5031085 7.6782699 2.3457887
4.5304646 7.6780114 2.2975171
4.550981 7.6770258 2.2393806
4.5714903 7.6760402 2.1812346
4.5920062 7.6750541 2.1230981
4.6056805 7.6733618 2.0550954
4.6261959 7.6723757 1.9969575
4.6398659 7.6706729 1.9289465
4.6535397 7.6689706 1.860944
4.6672087 7.6672778 1.7929335
4.6603608 7.663424 1.6953332
4.6740298 7.6617317 1.6273222
4.6740232 7.6585951 1.5395877
4.6740108 7.6554685 1.4518449
4.6808448 7.6530485 1.3739765
4.6876726 7.6506391 1.2960994
4.6808257 7.6467862 1.1984994
4.6944938 7.6450934 1.1304889
4.6944871 7.6419568 1.0427547
4.6739521 7.6366787 0.92541504
4.6807799 7.6342592 0.84753799
4.6807737 7.6311331 0.75980377
4.6739202 7.6272793 0.66219521
4.6602268 7.6227188 0.55472136
4.6602182 7.6195817 0.46698618
4.6465244 7.6150222 0.35951281
4.6054668 7.607594 0.21257591
4.5507221 7.598732 0.045900345
4.5370336 7.5941715 -0.061566353
4.5028114 7.58746 -0.19864511
4.4959641 7.5836163 -0.29624486
4.222301 7.5518327 -0.77864146
4.2496519 7.5515738 -0.82692122
-7.1244478 7.1568809 3.430985
-6.93119 7.1754322 3.6220341
-6.8611541 7.1799021 3.6353264
-6.7838717 7.1852055 3.6590705
-6.6703467 7.1946454 3.7350988
-6.5930653 7.1999493 3.7588432
-6.5085382 7.2060761 3.7930391
-6.3950119 7.215518 3.8690674
-6.2959833 7.2233009 3.9241836
-6.1897039 7.2319188 3.9897604
-6.1051769 7.2380462 4.0239563
-6.0133986 7.2450061 4.0686131
-5.9361115 7.2503095 4.0923653
-5.8588352 7.2556124 4.1161013
-5.7743025 7.2617393 4.1503053
-5.7115173 7.2653952 4.1531382
-5.6559834 7.2682071 4.1455097
-5.6004486 7.2710304 4.1378818
-5.544909 7.2738523 4.1302619
-5.4821291 7.2774982 4.1330862
-5.4193439 7.2811437 4.1359181
-5.3710546 7.2831426 4.1178389
-5.2865281 7.2892694 4.1520348
-5.1947441 7.2962294 4.1966991
-5.1247139 7.3006992 4.2099833
-5.0474319 7.3060026 4.2337275
-4.9774017 7.310482 4.2470117
-4.9218616 7.3133039 4.2393918
-4.8663273 7.3161168 4.2317638
-4.8107929 7.3189392 4.2241359
-4.7552586 7.3217616 4.2165084
-4.6997242 7.3245835 4.2088799
-4.6441841 7.3273959 4.2012606
-4.5959005 7.3293943 4.1831722
-4.5476117 7.3313837 4.1650925
-4.4647141 7.3370333 4.1969266
-4.3826313 7.3424501 4.2275791
-4.3210645 7.3457365 4.2286444
-4.2458277 7.3504462 4.249424
-4.1842613 7.3537321 4.2504883
-4.1227007 7.3570185 4.2515445
-4.0679808 7.3595972 4.2427359
-4.0132613 7.3621864 4.2339268
-3.9517007 7.3654718 4.2349839
-3.9106627 7.3666372 4.2064438
-3.8491025 7.3699231 4.2074995
-3.8080645 7.371088 4.1789598
-3.7670264 7.3722534 4.1504197
-3.7054658 7.3755393 4.1514764
-3.6439052 7.3788362 4.1525335
-3.5754979 7.3828282 4.1634631
-3.5207782 7.3854074 4.154654
-3.4592175 7.3886933 4.1557107
-3.4113386 7.3905754 4.1370368
-3.3566191 7.3931546 4.1282277
-3.301899 7.3957334 4.1194186
-3.2608612 7.3968983 4.090879
-3.2198231 7.3980637 4.0623388
-3.1651034 7.4006424 4.0535297
-2.248404 7.4924183 5.2878132
-2.1936839 7.494997 5.2790041
-2.1184421 7.4996972 5.2997918
-1.9542677 7.513607 5.4488311
-1.8721788 7.5190144 5.4794922
-1.7832547 7.5251389 5.5200114
-1.7216941 7.5284243 5.5210671
-1.6464517 7.533134 5.5418549
-1.5780503 7.537127 5.5527763
-1.495961 7.5425439 5.5834384
-1.4275599 7.5465374 5.5943604
-1.3591584 7.55053 5.6052818
-1.3044387 7.5531182 5.5964737
-1.1949915 7.5613632 5.6665888
-1.1402659 7.5639424 5.6577878
-1.0718645 7.567935 5.6687093
-0.97610009 7.5747662 5.7190933
-0.9145394 7.5780516 5.7201495
-0.85297883 7.5813379 5.7212052
-0.79141784 7.5846338 5.7222624
-0.73669803 7.5872135 5.7134538
-0.68197882 7.5897918 5.7046442
-0.62041771 7.5930781 5.7057014
-0.55201054 7.5970812 5.7166314
-0.4630864 7.6031947 5.7571497
-0.39468497 7.6071978 5.7680726
-0.32628393 7.6111903 5.7789941
-0.26472285 7.6144767 5.7800508
-0.20316231 7.6177731 5.7811074
-0.14160123 7.6210585 5.7821641
-0.08687672 7.6236377 5.7733622
-0.03215602 7.6262164 5.764554
0.022563219 7.6287961 5.7557445
0.077283442 7.6313748 5.7469368
0.12516126 7.6332564 5.7282605
0.17304057 7.6351285 5.7095876
0.22091991 7.6370006 5.6909132
0.26195788 7.638166 5.6623731
0.30299586 7.6393309 5.6338334
0.34403378 7.6404958 5.6052933
0.38507175 7.6416612 5.5767536
0.42610973 7.6428261 5.5482135
0.480829 7.6454058 5.5394034
0.53516763 7.6477866 5.5300388
0.58912563 7.649971 5.5201182
0.6495496 7.6526546 5.519516
0.70350724 7.6548381 5.5095944
0.77038527 7.6580315 5.5182934
0.82434893 7.6602154 5.5083809
0.88476622 7.662909 5.5077701
0.93872434 7.6650934 5.4978495
0.99268234 7.6672668 5.4879279
1.0401807 7.6689425 5.468698
1.0876788 7.6706166 5.4494681
1.1287167 7.6717815 5.420928
1.1762203 7.6734557 5.4017057
1.2237179 7.6751308 5.3824754
1.2776759 7.6773148 5.3725548
1.331634 7.6794891 5.3626342
1.3920574 7.6821818 5.3620319
1.4460156 7.6843672 5.3521113
1.499974 7.6865401 5.3421912
1.5539321 7.6887255 5.3322697
1.6014293 7.6903992 5.3130388
1.6489276 7.6920733 5.2938085
1.7028908 7.6942577 5.2838964
1.7503889 7.6959319 5.2646661
1.7978867 7.6975965 5.2454352
1.8453851 7.6992717 5.2262058
1.8864231 7.7004366 5.1976652
1.9339206 7.7021112 5.1784348
1.9749587 7.7032762 5.1498947
2.009537 7.7039323 5.1120458
2.050575 7.7050972 5.0835056
2.0916128 7.7062621 5.054966
2.1326509 7.7074275 5.0264258
2.1736889 7.7085924 4.9978857
2.2147267 7.7097578 4.969346
2.2622244 7.711432 4.9501152
2.3032622 7.7125969 4.9215755
2.3443005 7.7137623 4.8930354
2.3917985 7.7154369 4.8738055
2.4328365 7.7166023 4.8452659
2.4738743 7.7177672 4.8167257
2.5213726 7.7194414 4.7974949
2.5624104 7.7206068 4.7689552
2.5969884 7.7212625 4.7311058
2.6380262 7.7224278 4.7025661
2.6726043 7.723083 4.6647158
2.700722 7.7232285 4.6175566
2.7353001 7.7238946 4.5797071
2.7698779 7.7245502 4.5418577
2.8044562 7.7252064 4.5040073
2.8454938 7.7263713 4.4754677
2.8865318 7.7275367 4.446928
2.9275699 7.7287016 4.4183874
2.9621427 7.7293568 4.3805299
3.0096457 7.7310319 4.3613081
3.0506837 7.7321968 4.332768
3.0917218 7.7333622 4.3042278
3.1327596 7.7345271 4.2756882
3.1737974 7.735692 4.2471485
3.2148356 7.7368574 4.2186079
3.2558737 7.7380223 4.1900682
3.2969115 7.7391877 4.1615286
3.3314841 7.7398429 4.1236706
3.3725224 7.7410078 4.09513
3.4070997 7.7416639 4.0572815
3.4481375 7.7428288 4.0287414
3.4827163 7.7434855 3.9908922
3.5172937 7.7441401 3.9530418
3.5454113 7.7442961 3.9058824
3.5864496 7.7454615 3.8773425
3.614568 7.7456069 3.8301837
3.6426802 7.7457538 3.7830169
3.677258 7.7464089 3.7451677
3.7118359 7.7470651 3.7073174
3.7399538 7.747221 3.6601579
3.7680721 7.7473674 3.6129982
3.8026497 7.7480226 3.5751491
3.8372226 7.7486787 3.5372913
3.8718004 7.7493343 3.4994414
3.906378 7.7499895 3.4615915
3.9409561 7.7506452 3.4237432
3.969074 7.750802 3.3765841
3.9971926 7.750948 3.3294241
4.02531 7.7510934 3.2822647
4.0534225 7.7512398 3.2350974
4.0815401 7.7513962 3.187938
4.1096582 7.7515421 3.1407783
4.144237 7.7521977 3.1029303
4.1723547 7.7523437 3.0557709
4.1940069 7.7519908 2.9992933
4.2221246 7.7521367 2.9521341
4.2494807 7.7518878 2.9038634
4.2699957 7.7509322 2.8457255
4.2905116 7.7499666 2.7875898
4.3110271 7.749011 2.729454
4.3452239 7.7494688 2.6910474
4.3725748 7.7492204 2.6427698
4.3999362 7.7489715 2.5945067
4.4272871 7.7487125 2.5462279
4.4478025 7.747757 2.488091
4.4683175 7.7468009 2.4299541
4.4956737 7.746552 2.3816833
4.5161896 7.7455869 2.3235469
4.5435452 7.7453375 2.2752762
4.5640607 7.7443819 2.2171402
4.5845752 7.7434258 2.1590035
4.5982504 7.7417536 2.0910015
4.6187649 7.7407975 2.0328648
4.6324339 7.7391348 1.964855
4.6529493 7.7381692 1.9067187
4.6597838 7.7357993 1.8288507
4.6597757 7.7327127 1.741118
4.6666098 7.7303424 1.6632509
4.6734376 7.7279735 1.5853758
4.6665888 7.7241797 1.4877779
4.6734223 7.7218003 1.4099095
4.6870966 7.7201381 1.3419077
4.6802487 7.7163439 1.2443094
4.6870766 7.713974 1.1664336
4.6870694 7.7108874 1.078701
4.6870623 7.7078099 0.99096775
4.6733732 7.70331 0.88350344
4.6733599 7.7002339 0.79576254
4.6733522 7.6971474 0.70803022
4.6665044 7.6933532 0.61043119
4.6596565 7.6895695 0.51283264
4.6459613 7.6850696 0.40536118
4.6049085 7.6777406 0.25843477
4.5912199 7.6732402 0.15097141
4.5433197 7.6652055 -0.0058283806
4.5296307 7.6607037 -0.11329222
4.5227828 7.6569214 -0.21089029
4.474884 7.6488853 -0.36768985
4.2491217 7.6224399 -0.78099227
-7.0078621 7.2425861 3.6459222
-6.9378309 7.2470369 3.6592057
-6.867795 7.2514958 3.6724977
-6.7687597 7.2592492 3.7276213
-6.6697245 7.2670031 3.7827451
-6.5996885 7.2714629 3.7960372
-6.4716606 7.2825112 3.8929844
-6.3943729 7.2877841 3.9167359
-6.2663393 7.2988319 4.0136909
-6.1745558 7.3057623 4.0583549
-6.0972738 7.3110447 4.082099
-6.0127349 7.3171525 4.1163106
-5.9354534 7.3224354 4.1400542
-5.8581657 7.3277178 4.163806
-5.7808781 7.3329911 4.1875577
-5.7180929 7.336627 4.1903896
-5.6553078 7.3402629 4.1932211
-5.5997729 7.3430748 4.1855931
-5.5369873 7.3467112 4.1884251
-5.4814472 7.3495235 4.1808052
-5.4186621 7.3531594 4.1836371
-5.3558764 7.3567953 4.1864691
-5.28584 7.3612547 4.1997604
-5.2085524 7.366538 4.2235126
-5.1312652 7.3718209 4.2472644
-5.0612288 7.3762703 4.2605557
-4.9984426 7.3799062 4.2633877
-4.9211612 7.3851886 4.2871313
-4.8656216 7.3880014 4.2795115
-4.8100872 7.3908138 4.2718835
-4.7617979 7.3928022 4.2538037
-4.7062635 7.3956146 4.2461753
-4.6579742 7.3976035 4.228096
-4.6096854 7.3995919 4.2100153
-4.5614023 7.4015803 4.1919274
-4.513113 7.4035692 4.1738472
-4.4310293 7.4089365 4.2044992
-4.3557868 7.4135962 4.2252851
-4.2737026 7.4189525 4.2559366
-4.212142 7.4222193 4.2569923
-4.1505871 7.4254851 4.2580404
-4.0890265 7.4287519 4.2590961
-4.0274658 7.4320178 4.2601519
-3.9727454 7.434576 4.2513423
-3.9248667 7.4364491 4.2326679
-3.8701468 7.4390073 4.2238579
-3.8222675 7.4408698 4.2051835
-3.7880709 7.4413376 4.1667781
-3.7265098 7.4446034 4.1678343
-3.6649489 7.4478703 4.16889
-3.6033883 7.4511251 4.1699457
-3.5486684 7.4536948 4.1611366
-3.4939485 7.456254 4.1523271
-3.4392285 7.4588232 4.143517
-3.3845088 7.4613814 4.1347079
-3.3297887 7.4639516 4.1258984
-3.2819102 7.4658132 4.1072235
-3.234031 7.4676857 4.0885496
-3.1929932 7.4688511 4.06001
-2.2831712 7.5588608 5.2843323
-2.2216105 7.5621262 5.285388
-2.0779636 7.5737867 5.4048195
-1.9685162 7.5819511 5.4749317
-1.8864324 7.5873089 5.5055833
-1.8043488 7.5926747 5.5362344
-1.7427881 7.5959411 5.5372901
-1.6538692 7.602006 5.5777993
-1.585467 7.6059675 5.5887208
-1.5170658 7.6099315 5.5996418
-1.4486639 7.6138935 5.6105623
-1.3939435 7.6164532 5.6017532
-1.3255422 7.6204162 5.6126738
-1.2434582 7.6257825 5.6433258
-1.168216 7.6304436 5.6641111
-1.1066551 7.6337094 5.6651673
-1.0040481 7.6411667 5.7254152
-0.93565202 7.6451297 5.7363281
-0.87409174 7.6483955 5.7373834
-0.81253093 7.6516623 5.7384391
-0.75781065 7.6542311 5.7296309
-0.70309073 7.6567898 5.7208204
-0.6483705 7.6593595 5.7120118
-0.59365106 7.6619182 5.7032013
-0.5184083 7.6665783 5.7239885
-0.4500066 7.6705513 5.7349091
-0.37476385 7.6752105 5.7556949
-0.30636165 7.6791739 5.7666168
-0.2516422 7.6817327 5.7578063
-0.1900814 7.684999 5.758863
-0.12852585 7.6882653 5.7599106
-0.073806524 7.690834 5.7511005
-0.019086123 7.6933937 5.7422924
0.035633206 7.695962 5.7334824
0.090353101 7.6985211 5.7246733
0.13823205 7.7003837 5.7059975
0.18611139 7.7022552 5.687324
0.23399034 7.7041178 5.6686497
0.28186882 7.7059793 5.6499739
0.32290679 7.7071447 5.6214337
0.37078565 7.7090068 5.6027594
0.41182363 7.7101717 5.5742192
0.45970297 7.7120442 5.5555453
0.50758135 7.7139063 5.5368705
0.56153899 7.7160802 5.5269485
0.61549759 7.7182536 5.5170283
0.66945559 7.7204285 5.5071077
0.72341371 7.7226119 5.4971867
0.78383106 7.725286 5.4965749
0.84424996 7.7279692 5.4959645
0.89820749 7.730144 5.486043
0.95216519 7.7323179 5.4761214
1.0061231 7.7345023 5.4662008
1.053622 7.736167 5.4469714
1.101119 7.7378411 5.4277406
1.1486174 7.7395053 5.4085097
1.1961151 7.7411799 5.3892798
1.2436135 7.7428451 5.370049
1.2975709 7.745029 5.3601279
1.3515291 7.7472029 5.3502073
1.4119469 7.7498865 5.349597
1.465905 7.7520609 5.3396754
1.5198636 7.7542353 5.3297548
1.5738212 7.7564087 5.3198333
1.6213189 7.7580838 5.3006034
1.6688172 7.759748 5.281373
1.7163149 7.7614231 5.2621431
1.7638131 7.7630877 5.2429123
1.8177652 7.7652617 5.2329826
1.8588032 7.766427 5.204443
1.906307 7.7681012 5.1852217
1.953799 7.7697768 5.1659827
1.9948369 7.7709417 5.1374426
2.0358751 7.7721066 5.1089029
2.0769129 7.773272 5.0803628
2.1114969 7.7739267 5.0425224
2.158989 7.7756023 5.023283
2.200027 7.7767673 4.9947429
2.2410648 7.7779322 4.9662032
2.2821028 7.7790976 4.9376631
2.3231409 7.7802625 4.9091229
2.3706446 7.7819266 4.8899012
2.4116824 7.7830915 4.861361
2.4591742 7.7847662 4.8421221
2.5002122 7.7859316 4.8135819
2.5412502 7.7870965 4.7850418
2.5822883 7.7882619 4.7565022
2.6168721 7.7889171 4.7186613
2.6579101 7.790082 4.6901212
2.6860285 7.7902384 4.6429629
2.7141461 7.7903943 4.5958037
2.7487245 7.7910504 4.5579538
2.7897625 7.7922153 4.5294137
2.8243401 7.7928805 4.4915643
2.8653779 7.7940459 4.4630246
2.9064159 7.7952108 4.4344845
2.9409943 7.7958665 4.3966341
2.9820321 7.7970314 4.3680944
3.0295298 7.7987061 4.3488646
3.0641081 7.7993617 4.3110142
3.1116059 7.8010364 4.2917848
3.1526437 7.8022017 4.2632446
3.1936817 7.8033667 4.234705
3.2347198 7.8045316 4.2061648
3.2757578 7.805697 4.1776247
3.3167956 7.8068619 4.149085
3.3513739 7.8075175 4.1112347
3.3924117 7.8086824 4.082695
3.4269891 7.8093481 4.0448456
3.4680271 7.8105135 4.0163059
3.5026054 7.8111687 3.9784555
3.5371838 7.8118248 3.9406071
3.5653017 7.8119802 3.8934484
3.5998793 7.8126459 3.855598
3.6279972 7.8128023 3.8084393
3.6561155 7.8129487 3.761281
3.6906929 7.8136139 3.7234304
3.7188108 7.8137703 3.676271
3.7469294 7.8139162 3.6291122
3.7879672 7.8150816 3.6005723
3.8225451 7.8157468 3.5627232
3.8571234 7.8164024 3.5248728
3.891701 7.8170681 3.4870238
3.9262793 7.8177247 3.4491749
3.9608564 7.8183899 3.4113247
3.9889746 7.8185358 3.3641653
4.0170927 7.8186922 3.3170066
4.0387506 7.8183479 3.2605383
4.0733294 7.8190045 3.2226892
4.1014471 7.81916 3.1755295
4.1295648 7.8193154 3.1283705
4.1576824 7.8194628 3.0812123
4.1858006 7.8196177 3.0340526
4.2139182 7.8197746 2.9868929
4.2351956 7.8192339 2.9298699
4.2557111 7.8182979 2.8717344
4.2830667 7.8180594 2.8234625
4.3035817 7.8171329 2.7653275
4.3309383 7.816895 2.7170575
4.3582935 7.8166656 2.6687863
4.3856506 7.8164268 2.6205161
4.4130049 7.8161974 2.5722458
4.4403672 7.815958 2.5239832
4.4608774 7.8150244 2.4658391
4.4813981 7.8140874 2.4077115
4.5087538 7.813858 2.359441
4.5292692 7.812923 2.3013055
4.5566254 7.8126941 2.2530353
4.5771399 7.8117585 2.1948988
4.5976553 7.810822 2.1367643
4.6113291 7.8091893 2.0687625
4.6250038 7.8075566 2.0007617
4.6455188 7.8066211 1.9426255
4.6523523 7.8042917 1.8647606
4.6660261 7.802659 1.7967591
4.6591825 7.798924 1.6991699
4.6660161 7.7965856 1.621304
4.6728492 7.7942548 1.5434377
4.6660004 7.7905216 1.4458411
4.6796751 7.7888889 1.3778403
4.6796675 7.785862 1.2901089
4.6865005 7.7835221 1.2122419
4.6864982 7.7804952 1.1245193
4.6864905 7.7774587 1.036788
4.6796417 7.7737255 0.93919134
4.6727934 7.7699909 0.84159422
4.6727858 7.7669649 0.75386286
4.6659369 7.7632308 0.65626621
4.6522474 7.7588 0.54880381
4.6454039 7.7550669 0.45121574
4.6385555 7.7513328 0.35361862
4.6043429 7.744801 0.21656179
4.5838122 7.7396736 0.099234104
4.5496054 7.7331424 -0.037816048
4.5290751 7.728004 -0.15514374
4.5017033 7.7221794 -0.28233528
4.2075396 7.689064 -0.79426479
-7.193295 7.2974677 3.5129216
-7.0290051 7.3125529 3.6621745
-6.9444666 7.3186407 3.6963859
-6.8744297 7.3230801 3.7096772
-6.7753892 7.3307939 3.7648082
-6.6835995 7.3376932 3.8094792
-6.5918093 7.344593 3.8541498
-6.4927683 7.3523164 3.9092813
-6.3864822 7.3608541 3.9748638
-6.2656932 7.3710284 4.0613656
-6.1811485 7.3771052 4.0955849
-6.1038609 7.3823676 4.1193366
-6.0265732 7.3876309 4.1430879
-5.9492855 7.3928938 4.1668391
-5.864747 7.3989706 4.2010503
-5.7874594 7.404233 4.2248015
-5.7174168 7.4086719 4.238101
-5.6546311 7.4122982 4.2409325
-5.5918403 7.4159136 4.243772
-5.5362997 7.4187164 4.2361517
-5.4735146 7.4223418 4.2389832
-5.4252253 7.4243307 4.2209034
-5.3624401 7.4279466 4.2237349
-5.2996483 7.4315724 4.2265744
-5.2296119 7.4360123 4.2398658
-5.1450734 7.4420986 4.2740769
-5.0822821 7.445715 4.2769165
-5.0122395 7.4501643 4.290216
-4.9349518 7.4554162 4.3139672
-4.8794174 7.4582295 4.3063393
-4.8166265 7.4618444 4.3091784
-4.7610855 7.4646473 4.3015585
-4.7055511 7.4674492 4.2939301
-4.6645136 7.4686141 4.2653904
-4.6234756 7.4697795 4.2368503
-4.5824375 7.4709444 4.2083101
-4.5341487 7.4729338 4.1902299
-4.48627 7.4747853 4.1715555
-4.4041915 7.4801025 4.2021971
-4.3152657 7.4861059 4.242712
-4.2400227 7.490726 4.2634978
-4.1784678 7.4939728 4.2645445
-4.1100655 7.4978952 4.275465
-4.0485048 7.5011411 4.2765198
-3.9937899 7.5036902 4.2677016
-3.93907 7.5062294 4.2588916
-3.8911915 7.5080919 4.2402163
-3.8364716 7.5106406 4.2314072
-3.7954335 7.5118055 4.202867
-3.7407131 7.5143552 4.194057
-3.6791525 7.517591 4.1951118
-3.6244378 7.5201402 4.1862941
-3.5697179 7.5226893 4.177484
-3.5218389 7.5245414 4.1588087
-3.4739599 7.526403 4.1401343
-3.41924 7.5289526 4.1313243
-3.3645198 7.5314913 4.1225142
-3.3098001 7.5340409 4.1137037
-3.2550857 7.5365901 4.1048861
-3.2140477 7.5377555 4.0763459
-2.3042564 7.6267276 5.3005824
-2.2427015 7.6299634 5.3016281
-2.0716898 7.6442709 5.460516
-1.9964526 7.648891 5.4812927
-1.8870039 7.6569667 5.551403
-1.8254488 7.6602125 5.5524502
-1.7502056 7.6648326 5.573236
-1.6544452 7.6715236 5.6236067
-1.5928843 7.6747694 5.6246629
-1.5313232 7.6780052 5.6257172
-1.4697621 7.681241 5.6267724
-1.4150479 7.6837907 5.6179543
-1.3603275 7.6863394 5.6091447
-1.2919259 7.6902728 5.6200647
-1.203006 7.6962762 5.6605721
-1.1414454 7.6995125 5.6616263
-1.038844 7.7069006 5.7218637
-0.96360099 7.7115211 5.7426486
-0.90203953 7.7147665 5.7437043
-0.8336432 7.7186904 5.7546163
-0.77892315 7.7212386 5.7458062
-0.72420311 7.7237878 5.7369962
-0.66948366 7.726337 5.7281852
-0.6216042 7.728199 5.7095118
-0.56689036 7.7307382 5.7006922
-0.49848786 7.7346711 5.7116132
-0.42324477 7.7392912 5.732398
-0.36168957 7.7425375 5.7334452
-0.29328746 7.7464609 5.7443652
-0.23172647 7.7497063 5.7454205
-0.17700651 7.752255 5.7366109
-0.11544544 7.7554922 5.7376657
-0.060731143 7.7580404 5.728847
0.00083035231 7.7612767 5.7299023
0.048708826 7.7631388 5.7112279
0.10342881 7.7656875 5.7024183
0.15130779 7.76754 5.6837425
0.20602256 7.7700891 5.6749253
0.25390112 7.7719407 5.656249
0.30178052 7.7738032 5.6375761
0.34965903 7.7756557 5.6188998
0.39753798 7.7775178 5.6002254
0.43857595 7.7786827 5.5716853
0.48645499 7.7805352 5.5530105
0.54041356 7.7827091 5.5430899
0.58791137 7.7843733 5.523859
0.64186376 7.7865381 5.5139294
0.69582194 7.7887111 5.5040088
0.74977946 7.7908864 5.4940872
0.80373758 7.7930498 5.4841666
0.86414981 7.7957239 5.4835463
0.91164768 7.797389 5.4643164
0.96560621 7.7995625 5.4543958
1.0195645 7.8017263 5.4444747
1.0735162 7.8039007 5.434545
1.1210146 7.8055649 5.4153147
1.1685123 7.80724 5.3960838
1.2160101 7.8089042 5.3768535
1.257048 7.8100696 5.3483133
1.3110063 7.8122334 5.3383923
1.3714185 7.814908 5.3377724
1.4253767 7.8170824 5.3278518
1.4793347 7.8192458 5.3179312
1.5332867 7.8214202 5.3080015
1.5872452 7.8235946 5.2980814
1.6347431 7.8252587 5.2788506
1.6887012 7.8274231 5.2689295
1.7361993 7.8290977 5.2496991
1.7836971 7.8307629 5.2304688
1.8311893 7.8324275 5.2112293
1.8786876 7.8340912 5.1919994
1.9261848 7.8357668 5.1727676
1.9672228 7.8369317 5.144228
2.0082607 7.8380971 5.1156878
2.0492988 7.839262 5.0871477
2.0903366 7.8404269 5.0586081
2.1313746 7.8415923 5.0300679
2.1724126 7.8427572 5.0015278
2.2134504 7.8439226 4.9729881
2.2609494 7.8455873 4.9537592
2.3019872 7.8467522 4.9252195
2.3494849 7.8484168 4.9059873
2.3969834 7.8500905 4.8867574
2.4380214 7.8512559 4.8582177
2.4790592 7.8524208 4.8296776
2.5265517 7.8540859 4.8104391
2.5675895 7.8552513 4.7818995
2.6021733 7.855916 4.7440577
2.6367505 7.8565726 4.7062078
2.6713293 7.8572383 4.6683598
2.6994467 7.8573933 4.6212006
2.7340245 7.8580599 4.5833507
2.7686083 7.8587251 4.5455098
2.8031867 7.8593907 4.5076599
2.8442242 7.8605556 4.4791203
2.8788021 7.8612113 4.4412708
2.9198401 7.8623762 4.4127312
2.9608784 7.8635411 4.384191
3.0019159 7.8647065 4.3556509
3.042954 7.8658714 4.3271112
3.083992 7.8670368 4.2985711
3.13149 7.8687115 4.2793407
3.1725278 7.8698764 4.2508011
3.2135661 7.8710418 4.2222605
3.2546041 7.8722067 4.1937208
3.2956419 7.8733721 4.1651812
3.3366799 7.874537 4.1366405
3.371258 7.8751922 4.0987911
3.4122956 7.8763576 4.0702515
3.4468737 7.8770227 4.0324016
3.4879117 7.8781881 4.0038614
3.5224895 7.8788538 3.9660127
3.550607 7.8790097 3.9188533
3.5787313 7.8791757 3.8717029
3.6133089 7.8798313 3.8338535
3.6414266 7.8799982 3.7866948
3.6695442 7.8801541 3.7395353
3.6976683 7.8803196 3.6923857
3.7322462 7.8809748 3.6545355
3.7668245 7.88164 3.6166861
3.8014019 7.8823061 3.5788364
3.8359802 7.8829718 3.5409873
3.8770182 7.8841367 3.5124471
3.9115963 7.8847923 3.4745982
3.9397142 7.8849587 3.4274402
3.9742975 7.8856139 3.3895984
4.0024161 7.8857803 3.3424394
4.0305328 7.8859367 3.2952805
4.058651 7.8861027 3.2481222
4.0867748 7.8862581 3.2009704
4.1213527 7.8869243 3.163121
4.1494708 7.8870802 3.1159623
4.1711287 7.8867369 3.059494
4.2057123 7.8874021 3.0216532
4.2273703 7.8870587 2.9651842
4.2482657 7.8863411 2.9076047
4.2687812 7.8854346 2.8494701
4.2893014 7.8845282 2.7913435
4.3166575 7.8843098 2.743073
4.3440137 7.8840909 2.694804
4.3713689 7.883872 2.6465325
4.4055657 7.8843403 2.6081281
4.4260864 7.8834343 2.5500016
4.4466014 7.8825283 2.4918661
4.4807982 7.8829966 2.4534607
4.494472 7.8814039 2.3854613
4.5218287 7.8811851 2.3371911
4.5423489 7.8802686 2.2790642
4.5628638 7.8793631 2.2209296
4.5833783 7.8784575 2.1627953
4.6038933 7.8775415 2.1046586
4.6175733 7.8759484 2.036669
4.631247 7.8743458 1.9686682
4.6449208 7.8727427 1.9006677
4.6517601 7.8704534 1.8228102
4.6585922 7.8681641 1.7449455
4.665431 7.8658733 1.6670895
4.6654229 7.8628864 1.5793591
4.6585789 7.8592134 1.4817722
4.6722531 7.8576097 1.4137723
4.6722507 7.8546238 1.3260505
4.6790833 7.8523335 1.2481847
4.6859164 7.8500438 1.1703203
4.685914 7.8470569 1.0825987
4.6722298 7.8426952 0.97514582
4.6790624 7.8404059 0.89728117
4.6722183 7.8367329 0.79969501
4.6722102 7.833746 0.71196413
4.6585255 7.8293743 0.60451221
4.6516767 7.8257008 0.50691652
4.6516743 7.8227239 0.41919565
4.6311488 7.8176665 0.30187893
4.6037827 7.8119116 0.17469645
4.5695744 7.8054795 0.037649632
4.5490432 7.8004217 -0.079675198
4.5285177 7.7953644 -0.1969924
4.5148335 7.7909932 -0.30444455
-7.1636925 7.373209 3.6023779
-7.0356464 7.3841577 3.6993465
-6.958353 7.3894 3.7231054
-6.8738079 7.3954568 3.7573237
-6.7747612 7.4031401 3.8124623
-6.682971 7.4100094 3.8571329
-6.5911751 7.4168801 3.9018109
-6.4921284 7.4245634 3.956949
-6.3713341 7.4346976 4.0434585
-6.2722864 7.4423809 4.0985961
-6.194993 7.4476237 4.1223555
-6.1249504 7.4520431 4.1356544
-6.0404062 7.4580989 4.1698732
-5.9631181 7.4633427 4.1936235
-5.8785734 7.4693985 4.2278419
-5.8012795 7.4746318 4.2516012
-5.7312374 7.4790606 4.2649002
-5.6611948 7.48348 4.2781992
-5.6056604 7.4862823 4.2705708
-5.5428686 7.4898887 4.2734098
-5.4800777 7.4935036 4.2762489
-5.4245377 7.4962964 4.2686286
-5.3762484 7.4982743 4.2505484
-5.3062057 7.5027046 4.2638478
-5.2434139 7.50631 4.2666874
-5.1733723 7.5107384 4.2799859
-5.1105804 7.5143447 4.2828255
-5.026041 7.5204005 4.3170362
-4.9487476 7.5256443 4.3407946
-4.8859568 7.5292501 4.3436337
-4.8304167 7.5320425 4.3360138
-4.7748766 7.5348449 4.328393
-4.7193356 7.5376368 4.3207726
-4.678298 7.5388021 4.2922325
-4.63726 7.5399671 4.2636929
-4.5962219 7.541132 4.2351527
-4.5551839 7.5422974 4.2066126
-4.5073051 7.5441494 4.1879377
-4.4457493 7.5473552 4.1889839
-4.3705058 7.5519447 4.2097683
-4.2815857 7.557889 4.2502732
-4.1995072 7.5631566 4.2809138
-4.1379519 7.5663624 4.28196
-4.0763903 7.5695786 4.2830143
-4.0148296 7.5727949 4.2840686
-3.9601145 7.5753236 4.27525
-3.9053946 7.5778532 4.2664399
-3.8506746 7.5803914 4.2576294
-3.8027954 7.5822339 4.2389536
-3.7549219 7.5840869 4.2202711
-3.700202 7.5866151 4.2114606
-3.6523228 7.5884671 4.1927853
-3.5976026 7.5909967 4.1839752
-3.5497236 7.5928493 4.1652999
-3.5018444 7.5946908 4.146625
-3.4471302 7.5972195 4.1378055
-3.39241 7.5997591 4.1289954
-3.3445306 7.6016011 4.1103206
-3.2898109 7.6041403 4.1015105
-3.2487729 7.6053052 4.0729704
-2.3185008 7.695271 5.3266959
-2.18854 7.7053165 5.4263821
-2.085938 7.712635 5.4866171
-2.0038593 7.7179022 5.5172582
-1.9149394 7.7238464 5.5577631
-1.8397017 7.7284265 5.5785394
-1.7371054 7.7357445 5.6387653
-1.6687026 7.7396369 5.6496854
-1.6003059 7.7435303 5.6605954
-1.5455863 7.7460694 5.6517854
-1.4908662 7.7485995 5.6429753
-1.4361513 7.7511277 5.6341567
-1.3814316 7.7536569 5.6253457
-1.3198705 7.7568731 5.6263995
-1.2446327 7.7614532 5.6471753
-1.1625539 7.7667203 5.6778169
-1.0667925 7.7733517 5.7281866
-0.99839634 7.7772446 5.7390976
-0.92999363 7.781148 5.7500167
-0.861597 7.7850413 5.7609277
-0.8068769 7.7875795 5.7521181
-0.75215673 7.7901087 5.7433076
-0.69744223 7.7926383 5.7344875
-0.64272213 7.7951674 5.725678
-0.59484267 7.797019 5.7070036
-0.54012293 7.7995486 5.6981931
-0.47856742 7.8027644 5.6992388
-0.41016507 7.8066573 5.7101574
-0.34176853 7.8105612 5.7210689
-0.28020731 7.8137765 5.7221227
-0.21865173 7.8169832 5.7231693
-0.16393167 7.8195224 5.7143593
-0.10236996 7.8227382 5.7154136
-0.047655493 7.8252678 5.7065954
0.013905227 7.8284836 5.7076492
0.068625838 7.8310132 5.6988392
0.12333983 7.8335419 5.6900201
0.17121935 7.8353934 5.6713452
0.22593904 7.8379235 5.6625342
0.28065395 7.8404522 5.6537166
0.32853252 7.8423042 5.6350403
0.37641203 7.8441458 5.6163664
0.42429107 7.8459983 5.5976901
0.47178891 7.8476634 5.5784607
0.51928717 7.8493276 5.5592294
0.57323915 7.8514924 5.5493002
0.62719733 7.8536553 5.5393791
0.67468989 7.85532 5.5201406
0.72864759 7.8574853 5.5102186
0.77614015 7.8591495 5.4909806
0.83009791 7.8613143 5.4810596
0.88405597 7.8634777 5.471138
0.93800855 7.8656421 5.4612083
0.98550677 7.8673067 5.441978
1.0394592 7.8694711 5.4320488
1.086957 7.8711357 5.412818
1.1344548 7.8728004 5.3935871
1.1819474 7.874465 5.3743496
1.2294452 7.8761296 5.3551173
1.2769436 7.8777938 5.3358889
1.330896 7.8799582 5.3259583
1.3848537 7.8821225 5.3160372
1.4388056 7.8842874 5.306107
1.4927639 7.8864508 5.296186
1.5467224 7.8886151 5.2862654
1.5942146 7.8902802 5.2670264
1.6481727 7.8924441 5.2571049
1.695671 7.8941092 5.2378759
1.743163 7.8957739 5.2186365
1.7971209 7.8979378 5.2087145
1.844613 7.8996029 5.189476
1.8921117 7.9012666 5.1702461
1.9396089 7.9029317 5.1510143
1.9806468 7.9040966 5.1224742
2.0216851 7.9052615 5.0939341
2.0627229 7.9064269 5.0653944
2.103761 7.9075918 5.0368547
2.144799 7.9087572 5.0083146
2.1922979 7.9104118 4.9890852
2.2333357 7.9115767 4.9605455
2.2808278 7.9132414 4.9413056
2.3283253 7.914906 4.9220748
2.3693633 7.9160714 4.8935347
2.416862 7.9177365 4.8743048
2.4578996 7.9189014 4.8457651
2.4989376 7.9200668 4.817225
2.5464351 7.921731 4.7979941
2.5810137 7.9223971 4.7601452
2.6155908 7.9230618 4.7222953
2.6501694 7.923727 4.6844459
2.6847534 7.9243932 4.646606
2.7193303 7.9250684 4.6087551
2.7539089 7.925734 4.5709071
2.788486 7.9264002 4.5330572
2.82307 7.9270654 4.4952154
2.8576479 7.927731 4.4573669
2.8922262 7.9283967 4.4195175
2.9332643 7.9295621 4.3909779
2.9743021 7.930727 4.3624377
3.0153401 7.9318919 4.3338976
3.0563781 7.9330573 4.3053579
3.1038759 7.9347215 4.2861271
3.1449137 7.9358869 4.2575874
3.1924117 7.9375515 4.2383561
3.2334497 7.9387164 4.209816
3.2744877 7.9398818 4.1812763
3.3155255 7.9410467 4.1527362
3.3565636 7.9422121 4.1241961
3.3911414 7.9428773 4.0863476
3.4257195 7.943543 4.0484982
3.4667575 7.9447083 4.0199585
3.5013413 7.9453735 3.9821181
3.5359192 7.9460392 3.9442668
3.5640368 7.9462051 3.897109
3.5986209 7.9468703 3.8592677
3.6267381 7.9470363 3.8121085
3.6484015 7.9467025 3.7556491
3.6765192 7.9468689 3.7084901
3.711098 7.9475341 3.6706414
3.7456813 7.9482002 3.6327996
3.7802591 7.9488654 3.5949519
3.8212974 7.9500303 3.566412
3.8558753 7.9506965 3.5285606
3.8904533 7.9513621 3.4907126
3.9250364 7.9520278 3.4528704
3.9596145 7.952693 3.4150217
3.9941926 7.9533587 3.3771725
4.0223165 7.9535246 3.3300219
4.0439796 7.9531908 3.2735617
4.0785575 7.9538569 3.2357125
4.1066756 7.9540224 3.1885533
4.1347985 7.9541888 3.141403
4.1629167 7.9543543 3.0942452
4.1910405 7.9545207 3.0470936
4.2127042 7.9541874 2.9906337
4.2408214 7.9543533 2.943475
4.2613368 7.9534674 2.8853414
4.2818575 7.9525814 2.8272152
4.3092127 7.9523826 2.778945
4.3365741 7.9521842 2.730684
4.3639297 7.9519849 2.6824148
4.3912854 7.9517756 2.6341455
4.4186406 7.9515767 2.5858757
4.4391613 7.9506903 2.5277493
4.4665174 7.9504919 2.4794805
4.4870329 7.9496064 2.4213457
4.5075531 7.94872 2.3632195
4.5280671 7.9478445 2.3050849
4.5485878 7.9469585 2.246959
4.5759439 7.9467597 2.1986902
4.5896225 7.9451866 2.1306994
4.6032963 7.943624 2.0627005
4.6238165 7.9427376 2.0045741
4.6374907 7.9411654 1.9365745
4.6443286 7.9389157 1.8587191
4.6580076 7.9373522 1.7907286
4.6511636 7.9337277 1.6931422
4.6579957 7.931478 1.6152787
4.664834 7.9292283 1.5374229
4.6648316 7.926302 1.449703
4.6716695 7.9240518 1.3718469
4.6716676 7.9211149 1.2841265
4.6716585 7.9181781 1.196398
4.6784964 7.9159279 1.1185422
4.6784935 7.9129915 1.0308223
4.6853313 7.9107409 0.95296621
4.6784878 7.9071269 0.85538101
4.6716437 7.9035134 0.75779533
4.6648002 7.899889 0.66021061
4.6647978 7.8969626 0.57249069
4.6511116 7.8926616 0.46503973
4.6511087 7.8897243 0.37731981
4.6032243 7.882009 0.22055387
4.5895391 7.877708 0.11310291
4.5690136 7.8727298 -0.0042104721
4.541646 7.867065 -0.13139057
4.5142841 7.8613901 -0.25856209
4.2064657 7.8277183 -0.7901485
-7.1703396 7.4448533 3.6395426
-7.0422821 7.4557409 3.7365265
-6.9577312 7.4617767 3.7707524
-6.8659353 7.4686174 3.8154297
-6.7741332 7.4754572 3.860116
-6.6823378 7.4822974 3.9047935
-6.5832844 7.4899497 3.9599385
-6.4697289 7.4992204 4.0360031
-6.3779325 7.5060601 4.0806808
-6.2933826 7.5120959 4.1149068
-6.2088375 7.5181231 4.1491246
-6.1387892 7.522532 4.1624317
-6.054244 7.5285583 4.1966496
-5.9841957 7.5329676 4.2099562
-5.8996506 7.5390038 4.2441745
-5.8151007 7.5450301 4.2784004
-5.7450576 7.5494385 4.2916994
-5.6750145 7.5538483 4.3049979
-5.6122174 7.5574446 4.3078451
-5.5494266 7.5610399 4.3106837
-5.4866347 7.5646362 4.3135228
-5.4310946 7.5674276 4.305902
-5.3755541 7.5702105 4.2982807
-5.3200083 7.5730019 4.2906694
-5.2572165 7.5765977 4.2935081
-5.1944256 7.580194 4.2963471
-5.1316338 7.5837889 4.2991862
-5.0543346 7.5890112 4.3229523
-4.9697895 7.5950384 4.3571701
-4.8997412 7.5994473 4.3704772
-4.8369498 7.6030531 4.3733163
-4.7814093 7.605835 4.3656955
-4.7266893 7.6083546 4.3568845
-4.6856513 7.6095195 4.3283448
-4.6446133 7.6106844 4.2998047
-4.6035757 7.6118498 4.271265
-4.5625372 7.6130147 4.2427249
-4.5214996 7.6141801 4.2141848
-4.4736204 7.6160121 4.1955094
-4.4189053 7.6185308 4.1866903
-4.343667 7.6230707 4.2074652
-4.2410703 7.6303096 4.2676897
-4.1658325 7.63485 4.2884645
-4.1042709 7.6380358 4.2895174
-4.0358739 7.6418991 4.3004279
-3.9811592 7.6444182 4.2916088
-3.9264393 7.6469369 4.2827978
-3.8717246 7.649447 4.2739787
-3.8170042 7.6519656 4.2651682
-3.769125 7.6537971 4.2464924
-3.7212458 7.6556392 4.2278171
-3.673367 7.6574817 4.2091413
-3.6254935 7.6593242 4.1904583
-3.5707731 7.6618333 4.1816473
-3.5228939 7.6636753 4.162972
-3.4681792 7.6661949 4.1541529
-3.4203005 7.6680369 4.1354775
-3.3655798 7.6705456 4.1266665
-3.3177066 7.6723881 4.1079826
-3.2766685 7.673553 4.079443
-2.3327513 7.7638044 5.3528018
-2.1959538 7.7744174 5.4623408
-2.1070337 7.7803116 5.5028443
-2.0386364 7.7841754 5.5137544
-1.9291983 7.7920895 5.5838447
-1.8676369 7.7952766 5.5848975
-1.7445222 7.8045459 5.6747074
-1.6829607 7.8077321 5.6757612
-1.6145635 7.8115945 5.6866713
-1.5598488 7.8141136 5.6778526
-1.505129 7.8166232 5.6690416
-1.4572494 7.8184652 5.6503663
-1.4025348 7.8209848 5.6415477
-1.3409739 7.8241711 5.6426005
-1.2794178 7.8273568 5.6436462
-1.1973389 7.8325739 5.6742849
-1.0947416 7.8398123 5.7345095
-1.0331858 7.843009 5.7355556
-0.96478325 7.8468719 5.7464733
-0.89638585 7.8507342 5.7573848
-0.83483064 7.8539209 5.7584291
-0.78011036 7.8564401 5.7496185
-0.7253952 7.8589487 5.7407994
-0.67067552 7.8614678 5.731988
-0.61595523 7.863987 5.7231774
-0.5680818 7.8658195 5.7044945
-0.51336151 7.8683386 5.6956825
-0.45864701 7.8708582 5.6868639
-0.39024442 7.8747206 5.6977825
-0.32868817 7.8779073 5.6988277
-0.26713249 7.8811035 5.6998739
-0.20557103 7.8842897 5.7009268
-0.14401576 7.887475 5.7019725
-0.08929503 7.8899941 5.693162
-0.027739286 7.8931813 5.6942072
0.026980489 7.8956995 5.6853962
0.08853671 7.8988862 5.6864424
0.14325693 7.9014053 5.6776309
0.19797155 7.903914 5.6688118
0.25269181 7.9064336 5.6600008
0.30741215 7.9089437 5.6511908
0.3552855 7.9107842 5.6325064
0.40316463 7.9126272 5.6138315
0.45711666 7.9147806 5.6039009
0.51107484 7.9169459 5.5939798
0.55856705 7.9186006 5.5747414
0.61251998 7.9207654 5.5648117
0.66001773 7.9224291 5.5455818
0.71397036 7.9245834 5.5356522
0.76146811 7.9262481 5.5164208
0.80896646 7.9279017 5.497191
0.86291891 7.9300656 5.4872603
0.9104169 7.9317217 5.46803
0.95790899 7.9333863 5.4487906
1.0054073 7.935051 5.4295607
1.0593593 7.9372053 5.419631
1.106858 7.9388695 5.4004011
1.1543503 7.9405346 5.3811612
1.2018477 7.9421902 5.3619304
1.2428856 7.9433556 5.3333902
1.2968385 7.9455194 5.3234615
1.3443364 7.9471731 5.3042307
1.3918285 7.9488382 5.2849913
1.4457867 7.9509921 5.2750702
1.506194 7.9536467 5.2744417
1.5536917 7.9553108 5.2552109
1.6076443 7.9574757 5.2452826
1.6551427 7.9591289 5.2260513
1.7090944 7.9612937 5.2161222
1.7565929 7.9629488 5.1968918
1.8105448 7.9651136 5.1869612
1.8515829 7.9662786 5.1584215
1.9055358 7.9684319 5.1484923
1.9465739 7.9695969 5.1199522
1.9876119 7.9707623 5.0914125
2.0351093 7.9724278 5.0721817
2.0761471 7.9735928 5.043642
2.1171851 7.9747581 5.0151019
2.1646836 7.9764109 4.9958706
2.2121758 7.9780769 4.9766321
2.2596734 7.9797411 4.9574008
2.3071721 7.9814053 4.9381714
2.3482103 7.9825706 4.9096313
2.3957024 7.9842257 4.8903923
2.4367404 7.9853911 4.8618526
2.4777782 7.9865561 4.8333125
2.5188165 7.9877214 4.8047724
2.5598543 7.9888864 4.7762327
2.5944381 7.9895611 4.7383914
2.629015 7.9902272 4.7005415
2.6700532 7.9913921 4.6720014
2.6981769 7.9915571 4.6248512
2.7327545 7.9922347 4.5870028
2.767333 7.9928989 4.5491533
2.8083713 7.9940643 4.5206132
2.836494 7.9942412 4.4734626
2.877532 7.9954066 4.4449224
2.9121153 7.9960709 4.4070807
2.9531536 7.9972358 4.378541
2.9877317 7.9979019 4.3406935
3.0287697 7.9990668 4.3121533
3.0762672 8.0007315 4.2929211
3.117305 8.0018959 4.2643814
3.1647975 8.003562 4.2451429
3.2058358 8.0047274 4.2166033
3.2468739 8.0058928 4.1880627
3.2879117 8.0070572 4.159523
3.3289497 8.0082226 4.1309834
3.369988 8.009388 4.1024427
3.4045708 8.0100517 4.0646019
3.4456086 8.0112171 4.0360618
3.4866467 8.0123825 4.0075216
3.5147653 8.012558 3.9603641
3.5428886 8.0127239 3.9132137
3.5774665 8.013401 3.875365
3.6055901 8.013566 3.8282135
3.6337137 8.0137415 3.7810643
3.6618366 8.0139074 3.7339129
3.6964147 8.0145836 3.696064
3.7245383 8.0147495 3.6489136
3.7655766 8.0159149 3.6203735
3.8001542 8.0165911 3.5825248
3.8347321 8.0172558 3.5446751
3.8693156 8.0179224 3.5068333
3.9103534 8.0190868 3.4782937
3.9384773 8.0192623 3.4311447
3.9730546 8.019928 3.3932943
4.0076337 8.0206032 3.3554461
4.0357561 8.0207691 3.3082943
4.06388 8.0209436 3.2611442
4.0984583 8.0216112 3.2232964
4.1265812 8.0217867 3.1761448
4.1547055 8.0219526 3.1289947
4.1763687 8.0216293 3.0725355
4.2044916 8.0218048 3.0253844
4.2261553 8.0214825 2.9689255
4.2538919 8.0214691 2.9212112
4.2744122 8.0206137 2.8630857
4.3017683 8.0204248 2.8148167
4.3291297 8.0202456 2.7665558
4.3564854 8.0200577 2.7182877
4.3838463 8.0198784 2.6700268
4.411202 8.0196905 2.6217575
4.4317222 8.0188332 2.5636325
4.4522362 8.0179663 2.5054979
4.4795923 8.0177889 2.4572296
4.5001121 8.016922 2.3991041
4.513792 8.0153894 2.3311138
4.5411468 8.0152111 2.282845
4.561667 8.0143442 2.224719
4.5753455 8.0128117 2.156729
4.5958662 8.0119553 2.0986037
4.60954 8.0104122 2.030606
4.6232185 8.0088797 1.9626157
4.6368976 8.0073471 1.8946257
4.6437354 8.0051365 1.8167706
4.6368904 8.0015821 1.7191877
4.6505704 8.0000505 1.6511984
4.6505666 7.9971638 1.5634785
4.6574044 7.9949532 1.4856255
4.6642475 7.992743 1.407778
4.6642451 7.9898558 1.3200591
4.671083 7.9876456 1.2422051
4.6710792 7.9847689 1.1544859
4.6710763 7.9818821 1.0667663
4.6779141 7.9796715 0.98891258
4.6779108 7.9767852 0.90119267
4.6710711 7.9732304 0.80361748
4.664227 7.9696674 0.70603418
4.6642241 7.9667807 0.6183157
4.6573849 7.9632258 0.52073908
4.6505408 7.959662 0.42315578
4.643702 7.9561086 0.32558107
4.5889812 7.9478245 0.15896177
4.5821362 7.9442606 0.061378002
4.5547743 7.9386759 -0.065790653
4.5274115 7.9330912 -0.19296026
4.3290491 7.9106402 -0.56670165
4.2606516 7.9010034 -0.75304151
-7.2977939 7.5064344 3.5901833
-7.1697302 7.5172811 3.6871743
-7.0561686 7.5265107 3.7632461
-6.9571095 7.5341249 3.8183985
-6.8725586 7.5401306 3.8526237
-6.7734995 7.5477538 3.9077766
-6.6816974 7.554564 3.9524617
-6.5753875 7.5629902 4.018074
-6.4835854 7.5698004 4.0627584
-6.3845263 7.5774126 4.1179113
-6.3144779 7.5818124 4.131218
