# .PCD v0.7 - Point Cloud Data file format
VERSION 0.7
FIELDS x y z
SIZE 4 4 4
TYPE F F F
COUNT 1 1 1
WIDTH 1574
HEIGHT 1
VIEWPOINT 0 0 0 1 0 0 0
POINTS 1574
DATA ascii
-4.8487992 8.06287 4.4917755
-4.8072166 8.0618305 4.4640298
-4.7723017 8.0598326 4.4263272
-4.7240524 8.0597525 4.4085383
-4.6824698 8.058713 4.3807926
-4.6342258 8.0586452 4.3629942
-4.5726471 8.0604944 4.365108
-4.4977393 8.0642834 4.387126
-4.4428277 8.0651741 4.3792844
-4.361258 8.0699224 4.4112506
-4.2930117 8.0727425 4.4233212
-4.2314386 8.0745916 4.4254274
-4.176527 8.0754824 4.4175854
-4.0816231 8.0821609 4.4694633
-4.0000534 8.0869093 4.5014296
-3.9384744 8.0887585 4.5035439
-3.8902307 8.0886889 4.4857459
-3.8353133 8.0895796 4.4779119
-3.7937312 8.0885401 4.4501662
-3.7454867 8.0884609 4.4323688
-3.7039046 8.0874224 4.404623
-3.662322 8.0863829 4.3768768
-3.6140728 8.0863123 4.359087
-3.5791574 8.0843048 4.3213854
-2.6178284 8.2163782 5.6670694
-2.5362535 8.2211285 5.6990433
-2.441355 8.2277956 5.7509127
-2.3731141 8.2306252 5.7629752
-2.2515516 8.2411518 5.8546619
-2.1566472 8.2478294 5.9065404
-2.0817449 8.2516193 5.9285502
-2.0135045 8.2544384 5.9406118
-1.9519258 8.2562885 5.9427261
-1.8970144 8.2571793 5.9348845
-1.855432 8.2561398 5.9071388
-1.8138497 8.2551012 5.8793931
-1.7655997 8.2550306 5.8616033
-1.7040212 8.2568808 5.8637176
-1.6291187 8.2606602 5.8857284
-1.5542111 8.2644491 5.9077449
-1.4859703 8.2672691 5.9198074
-1.4177243 8.2700882 5.9318776
-1.3428216 8.2738667 5.9538884
-1.2812426 8.2757263 5.9560027
-1.2196648 8.2775774 5.9581165
-1.1580911 8.2794361 5.9602232
-1.0965126 8.2812862 5.9623365
-1.0416013 8.282176 5.9544945
-0.98668945 8.2830677 5.9466534
-0.9451071 8.2820282 5.9189076
-0.89685762 8.2819586 5.9011173
-0.84861392 8.2818785 5.8833199
-0.79370213 8.2827692 5.8754783
-0.71879423 8.2865477 5.8974967
-0.65055341 8.2893677 5.9095583
-0.57564539 8.2931566 5.9315763
-0.5074051 8.2959776 5.9436388
-0.44582671 8.2978258 5.9457526
-0.38424769 8.2996864 5.9478664
-0.32267457 8.3015356 5.9499726
-0.26776272 8.3024263 5.9421315
-0.20618424 8.304286 5.9442458
-0.1446054 8.3061361 5.9463606
-0.083032131 8.3079948 5.9484663
-0.021453202 8.3098459 5.9505811
0.032704711 8.3103838 5.9416223
0.093155205 8.311718 5.9420648
0.14731264 8.3122568 5.9331064
0.20147011 8.3127956 5.9241481
0.24934018 8.312541 5.9057965
0.30350333 8.3130798 5.8968458
0.35766128 8.3136187 5.8878875
0.40553099 8.3133745 5.869535
0.45340157 8.313118 5.8511834
0.50127649 8.3128738 5.8328395
0.54914653 8.3126183 5.8144879
0.60330445 8.313158 5.8055296
0.65117514 8.312912 5.787178
0.6990447 8.3126574 5.7688255
0.74062705 8.3116188 5.7410793
0.78849679 8.3113728 5.7227268
0.83007914 8.3103342 5.6949811
0.87794971 8.3100796 5.67663
0.91953206 8.3090401 5.6488838
0.96111441 8.3080015 5.6211381
1.0026968 8.306962 5.5933924
1.044279 8.3059225 5.5656466
1.0795732 8.3040991 5.5285063
1.1211555 8.3030596 5.5007606
1.1627378 8.302021 5.4730148
1.2106084 8.3017664 5.4546633
1.2584834 8.3015213 5.4363189
1.3063536 8.3012676 5.4179678
1.3542235 8.3010197 5.3996153
1.4020932 8.300766 5.3812628
1.456251 8.3013058 5.3723044
1.5041271 8.3010607 5.353961
1.5519969 8.3008051 5.3356085
1.5998669 8.300559 5.317256
1.6540246 8.3010998 5.3082986
1.7018943 8.3008442 5.2899461
1.7497643 8.3006001 5.2715945
1.7976398 8.3003445 5.2532501
1.8517973 8.3008823 5.2442913
1.8996675 8.3006382 5.2259388
1.9475374 8.3003931 5.2075872
1.9954071 8.3001366 5.1892357
2.043278 8.2998934 5.1708841
2.0848603 8.2988539 5.1431379
2.1264424 8.2978144 5.1153927
2.1680248 8.2967758 5.0876465
2.2096074 8.2957363 5.0599008
2.2449014 8.2939024 5.0227609
2.2801962 8.2920799 4.985621
2.3217785 8.2910404 4.9578753
2.3633611 8.2900019 4.9301291
2.4112306 8.2897453 4.9117775
2.4591012 8.2895021 4.8934259
2.5006835 8.2884626 4.8656802
2.5359778 8.2866278 4.8285403
2.5712726 8.2848063 4.7914004
2.6002793 8.2821779 4.7448673
2.6355743 8.2803555 4.7077279
2.6645761 8.2777395 4.6611867
2.6935833 8.2751207 4.6146536
2.72259 8.2725029 4.5681195
2.7704601 8.2722473 4.5497675
2.81833 8.2720041 4.5314164
2.8661995 8.2717485 4.5130639
2.9140701 8.2715044 4.4947119
2.9619453 8.2712488 4.4763675
3.0098152 8.2710028 4.4580159
3.0513978 8.2699633 4.4302702
3.0929801 8.2689247 4.402524
3.1282744 8.2670918 4.3653841
3.1698565 8.2660532 4.3376389
3.1988583 8.2634354 4.2910976
3.2341537 8.2616119 4.2539582
3.2694478 8.259778 4.2168183
3.3047426 8.2579546 4.1796784
3.33375 8.2553396 4.1331463
3.3690386 8.2535057 4.0959978
3.3980451 8.2508869 4.0494647
3.4333401 8.2490635 4.0123253
3.4623473 8.2464476 3.9657917
3.5039299 8.245409 3.9380457
3.5329311 8.2427902 3.8915043
3.5745134 8.2417507 3.8637583
3.6098087 8.2399187 3.8266191
3.6388152 8.2373009 3.7800863
3.6803973 8.2362623 3.7523406
3.715692 8.2344398 3.7152004
3.744699 8.2318211 3.6686671
3.7799885 8.2299881 3.6315198
3.8152823 8.2281656 3.5943797
3.8442905 8.2255478 3.5478468
3.8732975 8.22293 3.5013134
3.908586 8.221097 3.4641662
3.9313052 8.2176962 3.4082389
3.9540243 8.2142849 3.3523114
3.9830265 8.2116661 3.3057718
4.0053711 8.2080908 3.2492893
4.0269575 8.2041521 3.1916842
4.0618725 8.2021532 3.1539814
4.0834637 8.1982155 3.0963845
4.1183791 8.1962156 3.0586827
4.1466317 8.1932487 3.0110323
4.1748857 8.190279 2.963383
4.1964712 8.1863422 2.9057772
4.2180629 8.1824141 2.8481793
4.2396483 8.1784744 2.7905736
4.2612338 8.1745472 2.7329674
4.2828259 8.1706085 2.67537
4.2977443 8.1657114 2.6078084
4.3193364 8.1617823 2.5502107
4.3342543 8.1568842 2.4826491
4.3491783 8.1519871 2.4150949
4.3641024 8.147089 2.3475411
4.3723598 8.1412315 2.2700319
4.3872833 8.1363344 2.2024777
4.3955412 8.1304665 2.1249681
4.3838062 8.1217108 2.017606
4.4053922 8.1177826 1.9600005
4.4069877 8.1109552 1.8725426
4.4085817 8.1041288 1.7850854
4.423501 8.0992308 1.7175236
4.4250965 8.0924044 1.6300657
4.4333529 8.0865469 1.552556
4.4349475 8.0797186 1.4650986
4.4498715 8.0748215 1.3975444
4.4514618 8.0679941 1.3100789
4.4463897 8.0602083 1.2126644
4.4613128 8.0552998 1.1451106
4.4562407 8.047513 1.0476973
4.4578362 8.0406857 0.96024036
4.452764 8.0328979 0.86282587
4.4343619 8.0231724 0.74550819
4.4159613 8.0134573 0.62819099
4.3975601 8.0037413 0.51087236
4.3191743 7.9853377 0.30398369
4.2674475 7.9707937 0.13690186
4.2090592 7.9552894 -0.040127277
4.2106543 7.9484625 -0.12758493
4.1256018 7.9290886 -0.34443116
3.8739324 7.8856158 -0.81007981
3.9155149 7.8845768 -0.83782601
-7.5987816 7.9894619 3.8421478
-7.4581766 8.004283 3.9622126
-7.3741579 8.0100384 3.997812
-7.2406273 8.0237122 4.1073165
-7.1566081 8.0294676 4.1429157
-7.0584455 8.0374842 4.1996274
-6.9532075 8.0466366 4.2668991
-6.862114 8.0535183 4.3130589
-6.7710204 8.0604076 4.3592176
-6.6728578 8.0684242 4.4159303
-6.5959077 8.0730448 4.4409771
-6.5331068 8.0754032 4.4449043
-6.4703064 8.0777607 4.4488306
-6.4145803 8.0789928 4.4421968
-6.3588486 8.0802145 4.4355717
-6.2960482 8.0825739 4.4394984
-6.2261724 8.0860662 4.4539852
-6.1563025 8.08955 4.4684639
-6.0864272 8.0930433 4.4829512
-5.9953337 8.0999241 4.5291109
-5.9042397 8.1068172 4.5752707
-5.8202209 8.1125717 4.6108694
-5.7503457 8.1160545 4.6253572
-5.6804757 8.1195498 4.6398358
-5.6176748 8.1219072 4.6437621
-5.5619435 8.1231289 4.6371369
-5.5132923 8.1232252 4.6199427
-5.4646349 8.123312 4.6027575
-5.4089088 8.1245441 4.5961242
-5.3602524 8.1246309 4.5789385
-5.3045206 8.125864 4.5723133
-5.2487941 8.1270857 4.56568
-5.1930685 8.1283064 4.5590463
-5.1302676 8.1306667 4.562973
-5.0682817 8.1326714 4.5656919
-5.0133705 8.1335516 4.5578499
-4.9517975 8.1353827 4.5599566
-4.9102154 8.1343431 4.5322108
-4.8686333 8.1333046 4.5044651
-4.8270502 8.1322651 4.4767194
-4.7854681 8.1312256 4.4489737
-4.743886 8.130187 4.4212279
-4.6956363 8.1300964 4.4034381
-4.6540537 8.1290579 4.3756924
-4.5991426 8.1299372 4.3678508
-4.5375643 8.1317663 4.3699656
-4.4826589 8.1326389 4.3621154
-4.4210801 8.1344671 4.3642302
-4.3461723 8.1382074 4.3862495
-4.2646093 8.1429062 4.4182081
-4.189702 8.1466455 4.440227
-4.0814753 8.1551723 4.5120025
-4.0199022 8.1570024 4.5141087
-3.958324 8.1588326 4.5162239
-3.9100795 8.1587524 4.4984255
-3.8551683 8.1596212 4.4905844
-3.8069193 8.159543 4.4727941
-3.7586751 8.1594543 4.4549971
-3.7104256 8.1593733 4.4372072
-3.6688433 8.1583347 4.4094615
-3.6272609 8.1572952 4.3817158
-3.5856786 8.1562567 4.3539696
-2.7043815 8.2757139 5.580183
-2.5828259 8.2861509 5.6718621
-2.481266 8.2937193 5.7336822
-2.3996973 8.2984076 5.7656493
-2.3381186 8.3002481 5.7677631
-2.1965728 8.3135433 5.8892956
-2.1216652 8.3172922 5.911314
-2.0467634 8.3210316 5.9333243
-1.9851849 8.3228617 5.9354396
-1.9236119 8.3246927 5.9375458
-1.8753626 8.3246117 5.9197569
-1.8404473 8.3226137 5.8820543
-1.7921979 8.3225336 5.8642654
-1.7372922 8.3234043 5.8564148
-1.6690516 8.3261938 5.8684778
-1.5941448 8.3299322 5.8904967
-1.5259043 8.3327208 5.9025598
-1.4510027 8.336462 5.9245701
-1.3827628 8.3392506 5.9366331
-1.3211842 8.3410797 5.9387479
-1.2529444 8.3438597 5.95081
-1.1913714 8.3456898 5.9529157
-1.1297928 8.3475199 5.9550304
-1.0748817 8.3484011 5.9471898
-1.0199705 8.3492699 5.9393482
-0.97172642 8.3491907 5.9215498
-0.92347664 8.349102 5.9037609
-0.87523293 8.3490219 5.8859625
-0.82032138 8.3498917 5.8781219
-0.75874275 8.3517208 5.8802366
-0.67717409 8.3564205 5.9122038
-0.60893363 8.3592091 5.9242659
-0.54736078 8.3610392 5.9263721
-0.47245389 8.3647785 5.948391
-0.41754282 8.3656483 5.9405494
-0.35596988 8.3674803 5.9426556
-0.28772944 8.3702679 5.9547186
-0.23281792 8.3711395 5.946878
-0.17123976 8.3729687 5.9489927
-0.10966685 8.3747978 5.951098
-0.048088223 8.3766289 5.9532132
0.0064432025 8.3773327 5.944809
0.066888392 8.3786554 5.9452448
0.12104613 8.3791857 5.9362869
0.17520356 8.3797235 5.9273272
0.22936091 8.3802538 5.9183688
0.28351876 8.3807917 5.9094105
0.33767703 8.38132 5.9004536
0.38554665 8.3810673 5.8821011
0.43341619 8.3808107 5.863749
0.48128691 8.3805666 5.845397
0.53544366 8.3810949 5.8364387
0.5833143 8.3808403 5.8180871
0.63118398 8.3805943 5.7997346
0.67905414 8.3803396 5.781383
0.72692937 8.380084 5.7630386
0.76851183 8.3790445 5.7352924
0.81638122 8.3787899 5.7169399
0.85796368 8.3777514 5.6891942
0.90583408 8.3774958 5.6708426
0.94741654 8.3764572 5.6430969
0.9827106 8.3746338 5.605957
1.0305812 8.3743782 5.5876055
1.0658753 8.3725557 5.5504656
1.1074576 8.3715162 5.5227194
1.14904 8.3704767 5.4949737
1.1906223 8.3694382 5.4672279
1.2322047 8.3683987 5.4394822
1.273787 8.3673601 5.4117365
1.3216575 8.3671045 5.3933849
1.3695271 8.3668604 5.3750334
1.4173974 8.3666058 5.3566813
1.4652674 8.3663492 5.3383293
1.513137 8.3660946 5.3199768
1.5672948 8.3666344 5.3110185
1.6151644 8.3663788 5.292666
1.6630347 8.3661242 5.2743149
1.7109046 8.3658676 5.2559619
1.7650626 8.3664083 5.2470045
1.8129325 8.3661528 5.228652
1.8670901 8.3666811 5.2196941
1.9149601 8.366436 5.2013426
1.9628302 8.3661814 5.182991
2.0106997 8.3659267 5.1646385
2.0522823 8.3648872 5.1368923
2.0938644 8.3638477 5.1091466
2.1354465 8.3628092 5.0814009
2.1707418 8.3609858 5.0442619
2.2123241 8.3599463 5.0165157
2.2539065 8.3589077 4.9887705
2.2954886 8.3578682 4.9610243
2.3433585 8.3576136 4.9426718
2.3912287 8.3573589 4.9243197
2.4390988 8.3571138 4.9059682
2.4806809 8.3560753 4.8782225
2.5222635 8.3550358 4.8504763
2.5575581 8.3532028 4.8133364
2.586565 8.3505945 4.7668037
2.6218598 8.3487701 4.7296638
2.6508667 8.3461552 4.6831307
2.6798739 8.3435469 4.6365972
2.7088807 8.340929 4.5900631
2.750463 8.3398895 4.5623169
2.7920456 8.33885 4.5345712
2.8399155 8.3386059 4.5162196
2.8877857 8.3383512 4.4978681
2.9419429 8.3388805 4.4889097
2.9898133 8.338625 4.4705572
3.0376832 8.3383789 4.4522057
3.0792658 8.3373404 4.4244599
3.1145601 8.3355074 4.3873205
3.1561422 8.3344679 4.3595743
3.1914368 8.3326464 4.3224354
3.2204444 8.3300381 4.2759018
3.255739 8.3282146 4.2387619
3.2910333 8.3263807 4.201622
3.326328 8.3245583 4.1644826
3.3553357 8.3219519 4.117949
3.3843422 8.3193331 4.0714159
3.4196372 8.3175106 4.034277
3.4549317 8.3156881 3.9971373
3.4839392 8.3130693 3.9506032
3.519233 8.3112469 3.9134634
3.5545282 8.3094225 3.8763242
3.5898178 8.307601 3.8391771
3.6251125 8.3057766 3.802037
3.6604071 8.3039446 3.7648981
3.6957011 8.3021212 3.7277584
3.7309964 8.3002968 3.6906192
3.7600033 8.2976799 3.6440849
3.7952983 8.2958584 3.6069455
3.8243053 8.2932491 3.5604124
3.8596003 8.2914267 3.5232718
3.8886068 8.2888098 3.4767387
3.917614 8.2862015 3.4302058
3.9403331 8.2828007 3.3742788
3.9693408 8.2801943 3.3277454
3.9983473 8.2775764 3.2812123
4.0203133 8.2738438 3.2241683
4.0419054 8.2699356 3.1665699
4.070159 8.2669773 3.1189213
4.1050739 8.264987 3.0812187
4.1333275 8.2620306 3.0335691
4.1615806 8.2590809 2.985918
4.1831722 8.2551727 2.9283204
4.2114258 8.2522249 2.8806705
4.2263503 8.2473564 2.8131158
4.2479372 8.2434502 2.7555094
4.2695284 8.2395411 2.6979113
4.2911148 8.2356319 2.640305
4.3060389 8.2307758 2.572751
4.327631 8.2268562 2.5151532
4.342555 8.2220001 2.4475985
4.3508129 8.2161818 2.3700879
4.365737 8.2113132 2.3025331
4.374001 8.2054968 2.2250311
4.3889251 8.2006283 2.1574779
4.3838539 8.1928911 2.0600634
4.3921165 8.1870756 1.9825604
4.4003735 8.1812572 1.9050503
4.4019694 8.1744804 1.8175914
4.4102321 8.1686516 1.7400885
4.4251566 8.1637945 1.6725342
4.426753 8.1570177 1.5850756
4.4216866 8.1492805 1.4876692
4.4432726 8.1453743 1.4300625
4.4448681 8.1385956 1.3426051
4.4464641 8.1318178 1.2551463
4.44806 8.125042 1.1676888
4.4629846 8.1201839 1.1001337
4.4579182 8.1124477 1.0027268
4.4395237 8.1028013 0.88541603
4.4277897 8.0941153 0.77805257
4.4093895 8.0844688 0.66073418
4.3976564 8.0757723 0.55337238
4.3059502 8.0556097 0.32658339
4.2608967 8.0421352 0.16946363
4.222506 8.0296211 0.022293091
4.224102 8.0228529 -0.065165997
4.212368 8.0141563 -0.17252779
4.1473198 7.9978232 -0.35950875
3.9089952 7.9566183 -0.8052423
3.9439158 7.9546194 -0.84293652
-7.604557 8.0628548 3.8757949
-7.4780965 8.0753536 3.9747491
-7.3728485 8.084466 4.0420384
-7.2534571 8.09583 4.1304398
-7.1694384 8.1015654 4.166039
-7.0571156 8.1118031 4.2438889
-6.9660225 8.1186647 4.2900486
-6.8678484 8.1266499 4.3467774
-6.7696805 8.1346273 4.4034986
-6.6856565 8.1403637 4.439106
-6.6087065 8.1449623 4.4641538
-6.5388317 8.1484356 4.4786415
-6.4760256 8.1507835 4.4825764
-6.4202995 8.1519966 4.4759436
-6.3645678 8.1532183 4.4693174
-6.3088417 8.1544304 4.4626846
-6.2531109 8.155654 4.4560595
-6.1832352 8.1591272 4.4705467
-6.120429 8.1614656 4.4744825
-6.0364056 8.167201 4.5100899
-5.9453115 8.1740513 4.556251
-5.8471384 8.1820393 4.6129794
-5.763114 8.1877737 4.6485872
-5.6932387 8.1912479 4.6630745
-5.6304379 8.1935854 4.6670017
-5.5747066 8.194808 4.6603765
-5.5260496 8.1948948 4.6431913
-5.4773989 8.1949816 4.6259975
-5.4216671 8.1962042 4.6193719
-5.3800845 8.1951647 4.5916262
-5.3314276 8.1952496 4.574441
-5.2757015 8.1964636 4.5678072
-5.2128954 8.1988115 4.571743
-5.150095 8.2011595 4.5756698
-5.0947766 8.2021961 4.5684328
-5.0331984 8.2039948 4.5705476
-4.9782872 8.2048569 4.5627065
-4.9233761 8.2057161 4.5548649
-4.881794 8.2046766 4.5271192
-4.846879 8.2026873 4.4894171
-4.7986288 8.2025986 4.4716277
-4.7503853 8.2025089 4.4538298
-4.7021418 8.2024097 4.4360323
-4.6605592 8.2013702 4.4082866
-4.6123095 8.2012815 4.3904977
-4.5573983 8.2021408 4.3826561
-4.5091548 8.2020512 4.3648586
-4.4609108 8.2019625 4.3470607
-4.4059997 8.2028112 4.3392196
-4.2911124 8.2121992 4.4209442
-4.1828866 8.2206478 4.4927216
-4.1079855 8.2243462 4.5147328
-4.0397511 8.2270956 4.5267878
-3.9781733 8.2289047 4.528903
-3.9299293 8.228816 4.5111055
-3.8750186 8.2296648 4.503264
-3.820107 8.2305269 4.4954228
-3.7718635 8.2304354 4.4776249
-3.7236137 8.2303467 4.459836
-3.6820316 8.2293081 4.4320903
-3.640449 8.2282686 4.4043446
-3.5988669 8.2272291 4.3765988
-3.563952 8.2252398 4.3388958
-2.6227303 8.3521843 5.6546369
-2.5411677 8.3568344 5.6865959
-2.4329419 8.3652716 5.7583723
-2.378031 8.3661308 5.7505322
-2.2564819 8.3764687 5.842205
-2.1682518 8.3820658 5.8841205
-2.086689 8.3867159 5.916081
-2.0184495 8.3894644 5.928144
-1.9568715 8.3912745 5.9302592
-1.9019601 8.3921356 5.9224172
-1.8603778 8.3910961 5.8946714
-1.8187954 8.3900576 5.8669257
-1.7705514 8.3899574 5.8491287
-1.702312 8.3927164 5.8611922
-1.6274109 8.3964167 5.8832035
-1.5591767 8.3991652 5.8952584
-1.4909371 8.4019251 5.907321
-1.4226972 8.4046745 5.919385
-1.3544577 8.407423 5.9314475
-1.2928846 8.409234 5.9335551
-1.231312 8.4110336 5.9356623
-1.1697342 8.4128428 5.9377775
-1.1081617 8.4146433 5.9398842
-1.0465891 8.4164524 5.9419899
-0.99833935 8.4163628 5.924201
-0.95009542 8.4162645 5.906404
-0.90184617 8.416173 5.8886142
-0.85360211 8.4160852 5.8708167
-0.79202998 8.4178944 5.8729229
-0.71046138 8.4225445 5.904891
-0.63556027 8.4262428 5.9269023
-0.57398725 8.4280424 5.9290099
-0.51240897 8.4298515 5.9311256
-0.45083642 8.431653 5.9332323
-0.38926426 8.4334631 5.9353385
-0.32769173 8.4352617 5.9374456
-0.26611334 8.4370718 5.9395599
-0.20454088 8.4388723 5.9416671
-0.14296299 8.4406805 5.9437823
-0.081390381 8.4424906 5.945889
-0.019817352 8.4442921 5.9479971
0.034340441 8.4448195 5.9390388
0.094785452 8.4461336 5.9394736
0.14893693 8.4466515 5.9305072
0.20309424 8.4471798 5.9215484
0.25725251 8.44771 5.9125915
0.31140983 8.4482393 5.9036331
0.35927993 8.4479837 5.8852811
0.41343725 8.448513 5.8763232
0.46130112 8.4482574 5.8579621
0.50917166 8.4480028 5.8396106
0.56332833 8.4485216 5.8306518
0.6111989 8.448267 5.8123007
0.66535664 8.4487953 5.8033419
0.70693898 8.4477558 5.7755966
0.74852133 8.4467173 5.7478504
0.79639095 8.4464617 5.7294984
0.84426057 8.446208 5.7111459
0.88584292 8.4451685 5.6834002
0.92742527 8.444129 5.655654
0.97529578 8.4438744 5.6373024
1.01059 8.4420509 5.6001625
1.0584604 8.4417953 5.581811
1.0937546 8.4399729 5.5446711
1.1290495 8.4381485 5.5075321
1.1706321 8.4371099 5.4797859
1.2122142 8.4360704 5.4520407
1.2537968 8.4350309 5.4242945
1.2953792 8.4339924 5.3965487
1.3432485 8.4337378 5.3781962
1.3911191 8.4334831 5.3598447
1.4327013 8.4324436 5.332099
1.4742839 8.4314041 5.3043528
1.5221534 8.4311504 5.2860012
1.5700178 8.4308939 5.2676406
1.6178877 8.4306393 5.249289
1.6720452 8.4311676 5.2403307
1.719915 8.430913 5.2219796
1.7740724 8.4314327 5.2130203
1.8282303 8.4319601 5.2040625
1.8760946 8.4317064 5.1857018
1.9239645 8.4314508 5.1673508
1.9718345 8.4311953 5.1489983
2.0197048 8.4309416 5.1306467
2.0675745 8.430686 5.1122942
2.1028693 8.4288626 5.0751553
2.1444516 8.427824 5.0474091
2.1860342 8.4267845 5.0196633
2.2339039 8.4265299 5.0013113
2.2817736 8.4262743 4.9829588
2.3296437 8.4260187 4.9646072
2.3775136 8.425765 4.9462543
2.4190958 8.4247255 4.9185085
2.4606781 8.423687 4.8907633
2.5022604 8.4226475 4.8630171
2.5375557 8.4208231 4.8258781
2.57285 8.4190006 4.7887383
2.6018574 8.4163933 4.7422056
2.6308644 8.4137859 4.695672
2.6598773 8.4111776 4.6491461
2.6951716 8.4093552 4.6120071
2.7304661 8.4075327 4.5748672
2.7720485 8.4064932 4.547121
2.8199184 8.4062386 4.52877
2.8677883 8.405982 4.5104175
2.9219408 8.4065113 4.5014515
2.9698107 8.4062567 4.483099
3.0176806 8.406002 4.4647474
3.0655506 8.4057465 4.4463954
3.1071329 8.4047079 4.4186497
3.148715 8.4036684 4.3909035
3.1840098 8.4018459 4.3537645
3.213017 8.3992376 4.3072309
3.2483118 8.3974142 4.2700906
3.2836118 8.3955908 4.2329593
3.3126187 8.3929844 4.1864262
3.3479142 8.3911619 4.1492863
3.3769209 8.3885632 4.1027527
3.4059281 8.3859558 4.0562201
3.4412227 8.3841333 4.0190802
3.4702361 8.381526 3.9725547
3.5055304 8.3797035 3.9354146
3.5408251 8.3778791 3.8982759
3.5698321 8.3752728 3.851742
3.6051273 8.3734493 3.8146029
3.6404214 8.3716259 3.7774627
3.6757164 8.369813 3.7403238
3.7110116 8.3679895 3.7031841
3.7400246 8.3653822 3.6566594
3.7753189 8.3635597 3.6195197
3.8106136 8.3617353 3.5823801
3.8396208 8.359128 3.5358467
3.8749161 8.3573055 3.4987066
3.9039223 8.3546972 3.4521723
3.9329295 8.3520908 3.4056396
3.9619429 8.349494 3.3591144
3.9846623 8.3461018 3.3031883
4.0003409 8.3415956 3.2367504
4.028594 8.3386679 3.1890988
4.0568533 8.3357286 3.1414564
4.0851073 8.3327904 3.0938067
4.1133609 8.3298607 3.0461557
4.1482759 8.3278732 3.0084536
4.1698685 8.3239851 2.9508555
4.1914597 8.3201075 2.8932574
4.2130461 8.3162184 2.83565
4.2413006 8.3132906 2.7880001
4.2562304 8.3084536 2.7204533
4.2778172 8.304574 2.6628463
4.2994094 8.3006878 2.6052482
4.3143344 8.2958593 2.5376937
4.3292646 8.2910309 2.4701469
4.3441901 8.2861938 2.4025917
4.3591146 8.2813654 2.3350365
4.3673782 8.275588 2.2575345
4.3756413 8.2698011 2.1800311
4.3839049 8.2640228 2.1025271
4.3855014 8.2572966 2.0150688
4.393765 8.2515182 1.9375653
4.4020281 8.2457418 1.8600624
4.4036241 8.2390146 1.7726033
4.4185548 8.2341871 1.7050562
4.4201512 8.2274494 1.6175969
4.4217472 8.2207222 1.5301371
4.4300103 8.2149448 1.4526346
4.4316072 8.2082186 1.3651748
4.4398708 8.2024412 1.2876718
4.4414725 8.195714 1.2002213
4.4563966 8.1908855 1.1326661
4.4513321 8.1832085 1.035259
4.4396057 8.1745844 0.92790365
4.4412017 8.1678553 0.84044313
4.4094787 8.1563892 0.70322657
4.4110751 8.1496639 0.61576748
4.3060532 8.1277609 0.3690877
4.2743301 8.1162968 0.2318716
4.2359467 8.1038818 0.084707737
4.2442098 8.0981035 0.0072035789
4.2524734 8.0923271 -0.070299625
4.1607742 8.0723238 -0.2970829
3.9557898 8.0362091 -0.69304132
3.937396 8.0266418 -0.81035399
3.9723158 8.0246534 -0.84804749
-8.1029339 8.0808964 3.4435711
-8.0472031 8.0820999 3.4369464
-7.8004694 8.113656 3.7154365
-7.610333 8.1362171 3.9094434
-7.4909363 8.147541 3.9978542
-7.3927584 8.1554985 4.0545917
-7.2804356 8.1656971 4.1324425
-7.1893311 8.1725273 4.1786194
-7.0911589 8.1804733 4.2353487
-6.9788365 8.1906834 4.313199
-6.887732 8.197504 4.359376
-6.7824841 8.2065868 4.4266658
-6.6913862 8.2134075 4.4728351
-6.6215057 8.2168703 4.4873314
-6.5445509 8.2214499 4.5123873
-6.4888191 8.222662 4.5057621
-6.4330873 8.2238655 4.4991379
-6.3773623 8.2250776 4.4925041
-6.3216305 8.2262793 4.4858799
-6.2658997 8.2274933 4.4792547
-6.2101679 8.2287045 4.4726295
-6.1402874 8.2321568 4.4871254
-6.0704126 8.2356119 4.5016131
-6.0005322 8.2390766 4.516109
-5.8882093 8.2492752 4.5939598
-5.8041801 8.2549801 4.6295757
-5.7130818 8.2618008 4.6757455
-5.6573505 8.2630129 4.6691203
-5.5945444 8.2653503 4.6730556
-5.5458879 8.2654276 4.6558704
-5.497231 8.2655144 4.6386852
-5.4485741 8.2656002 4.6215
-5.3999166 8.265687 4.6043139
-5.3512602 8.2657738 4.5871286
-5.2955341 8.2669754 4.5804958
-5.2397971 8.2681894 4.5738792
-5.1769967 8.2705164 4.5778065
-5.114604 8.2726688 4.5811296
-5.0596933 8.273509 4.5732889
-4.9981208 8.2752876 4.5753965
-4.9432101 8.2761288 4.567555
-4.8949661 8.2760296 4.5497575
-4.8467174 8.2759304 4.5319681
-4.8051348 8.2748909 4.5042219
-4.7568908 8.2747898 4.4864249
-4.7086415 8.2746925 4.4686356
-4.6670594 8.273653 4.4408898
-4.6254768 8.2726145 4.4131441
-4.5772328 8.2725143 4.3953466
-4.5156608 8.2742939 4.3974543
-4.4740787 8.2732553 4.3697081
-4.4324961 8.2722158 4.3419623
-4.3109541 8.2824526 4.433629
-4.2227249 8.2879906 4.4755464
-4.1344953 8.2935286 4.5174637
-4.0662618 8.2962475 4.5295191
-4.0046897 8.2980385 4.5316257
-3.9431171 8.299818 4.5337334
-3.8882065 8.3006582 4.5258927
-3.8332953 8.3014975 4.5180521
-3.791713 8.3004589 4.4903059
-3.7434697 8.3003597 4.472508
-3.7018874 8.2993202 4.4447622
-3.660305 8.2982817 4.4170165
-3.6187227 8.2972422 4.3892708
-3.5771403 8.2962036 4.3615246
-3.5422192 8.2942238 4.3238316
-2.5877333 8.4219275 5.6594224
-2.4928436 8.4284067 5.7112875
-2.404614 8.4339447 5.7532048
-2.33638 8.4366646 5.7652607
-2.2148323 8.4469099 5.8569355
-2.1399317 8.4505692 5.8789473
-2.0650363 8.4542284 5.9009514
-1.9967971 8.4569483 5.9130144
-1.9352248 8.4587278 5.915123
-1.886981 8.4586287 5.8973246
-1.8387319 8.4585285 5.8795362
-1.7904879 8.4584303 5.8617373
-1.7355772 8.4592695 5.8538961
-1.6673429 8.4619894 5.865953
-1.5924423 8.4656477 5.8879647
-1.5242032 8.4683666 5.9000282
-1.4559695 8.4710884 5.9120841
-1.3943971 8.472867 5.9141922
-1.3328191 8.4746456 5.9163079
-1.2712469 8.4764271 5.9184151
-1.2096752 8.4782057 5.9205217
-1.1481029 8.4799871 5.9226289
-1.0798686 8.4827051 5.9346857
-1.0249584 8.4835463 5.9268446
-0.97671449 8.4834471 5.9090457
-0.92180377 8.4842863 5.9012046
-0.87355411 8.4841871 5.8834162
-0.81864917 8.4850273 5.8755665
-0.75040996 8.4877567 5.8876305
-0.67550886 8.4914169 5.9096432
-0.60727501 8.4941349 5.9216981
-0.55236483 8.494976 5.9138565
-0.4907921 8.4967556 5.9159651
-0.42921978 8.4985352 5.9180722
-0.3676475 8.5003147 5.9201794
-0.30607527 8.5020943 5.922287
-0.24449727 8.5038757 5.9244027
-0.18292502 8.5056543 5.9265099
-0.1146917 8.5083742 5.9385657
-0.059780508 8.5092144 5.9307251
0.0017918348 8.510994 5.9328318
0.062231481 8.5122976 5.9332595
0.11638862 8.5128155 5.9243016
0.17054009 8.5133352 5.9153347
0.23098552 8.5146379 5.915771
0.27885598 8.5143824 5.8974195
0.33300701 8.5149021 5.8884521
0.38087708 8.5146465 5.870101
0.43503422 8.5151653 5.8611422
0.4891867 8.515686 5.8521767
0.53705621 8.5154295 5.8338237
0.58492625 8.5151644 5.8154726
0.63279057 8.5149097 5.7971125
0.6869483 8.5154285 5.7881546
0.72853053 8.51439 5.7604089
0.77640027 8.5141335 5.7420559
0.82427061 8.5138798 5.7237043
0.86585307 8.5128412 5.6959586
0.9074353 8.5118017 5.6682129
0.95529914 8.5115366 5.6498523
0.99688137 8.5104971 5.6221066
1.0384638 8.5094576 5.5943608
1.0800461 8.508419 5.5666151
1.115347 8.5066061 5.5294838
1.1569294 8.5055666 5.5017381
1.1985117 8.504528 5.4739923
1.2338059 8.5027027 5.4368525
1.2753882 8.5016642 5.4091067
1.3169706 8.5006247 5.381361
1.364841 8.500371 5.3630095
1.4064234 8.4993324 5.3352633
1.4480058 8.4982929 5.3075175
1.4895881 8.4972544 5.2797718
1.5374517 8.4969883 5.2614112
1.5790341 8.4959488 5.2336655
1.6331921 8.4964781 5.2247066
1.6810614 8.496213 5.2063546
1.7352138 8.4967327 5.1973891
1.7893707 8.497261 5.1884303
1.8372413 8.4969959 5.1700788
1.8913926 8.4975157 5.1611123
1.9392626 8.4972601 5.1427612
1.9871327 8.4970055 5.1244097
2.0287154 8.495966 5.0966635
2.0765851 8.4956999 5.0783119
2.1181672 8.4946613 5.0505662
2.1660311 8.4944057 5.0322056
2.2139013 8.4941511 5.0138531
2.2617712 8.493886 4.9955015
2.3096406 8.4936314 4.977149
2.3512232 8.4925928 4.9494033
2.3990932 8.4923372 4.9310508
2.4406755 8.4912977 4.9033051
2.47597 8.4894753 4.8661661
2.5175526 8.4884357 4.8384199
2.54656 8.4858389 4.7918863
2.5818543 8.4840145 4.7547474
2.6108677 8.4814177 4.7082224
2.6461625 8.4795952 4.6710825
2.6751697 8.4769964 4.6245489
2.7104702 8.4751749 4.5874171
2.7520523 8.4741354 4.5596714
2.7936349 8.4730959 4.5319252
2.8477862 8.4736156 4.5229588
2.8956563 8.4733601 4.5046077
2.9498141 8.4738789 4.4956503
3.0039659 8.4744081 4.4866829
3.0518355 8.4741421 4.4683313
3.0934181 8.4731035 4.4405856
3.1350002 8.472064 4.4128399
3.1765823 8.4710245 4.3850946
3.2055893 8.4684277 4.3385606
3.2408905 8.4666042 4.3014297
3.2698975 8.4640083 4.2548952
3.3051918 8.4621849 4.2177553
3.3342052 8.4595871 4.1712298
3.3694997 8.4577742 4.1340899
3.3985074 8.4551668 4.0875573
3.4275193 8.45257 4.0410314
3.4565265 8.4499712 3.9944975
3.4918218 8.4481487 3.9573586
3.5208342 8.4455509 3.9108336
3.5561295 8.4437284 3.8736944
3.5851367 8.4411316 3.8271608
3.6204369 8.4393082 3.7900293
3.6557314 8.4374943 3.7528889
3.6910262 8.4356728 3.7157502
3.7263212 8.4338579 3.6786106
3.7553341 8.4312515 3.6320844
3.7906287 8.4294376 3.5949454
3.8196421 8.4268303 3.5484204
3.8549376 8.4250174 3.5112808
3.8839443 8.4224195 3.4647477
3.9129505 8.4198132 3.4182134
3.9419634 8.4172153 3.3716881
3.9646888 8.4138346 3.3157687
3.993696 8.4112377 3.2692351
4.0152884 8.4073792 3.211637
4.0435424 8.4044609 3.163986
4.0651355 8.4006023 3.1063867
4.1000562 8.3986235 3.0686927
4.1283092 8.3957062 3.0210416
4.1565628 8.392787 2.9733911
4.1781549 8.3889294 2.915792
4.1997485 8.3850718 2.8581944
4.2213411 8.3812122 2.8005955
4.2429333 8.3773546 2.7429953
4.2645259 8.3734961 2.6853967
4.2861185 8.3696375 2.6277976
4.3077049 8.3657808 2.5701914
4.3226352 8.3609829 2.5026429
4.3375602 8.3561745 2.4350877
4.3524914 8.3513765 2.3675411
4.354094 8.3446999 2.2800879
4.36902 8.3399029 2.2125328
4.377284 8.3341656 2.1350298
4.3788862 8.3274879 2.0475779
4.3871503 8.3217506 1.9700735
4.3887529 8.315074 1.8826218
4.4036779 8.310276 1.8150666
4.411942 8.3045378 1.7375631
4.4135447 8.2978611 1.65011
4.4151473 8.2911854 1.5626581
4.4234114 8.2854471 1.4851539
4.4316745 8.2797098 1.4076502
4.4399385 8.2739716 1.3301473
4.4348798 8.2663555 1.2327468
4.4498048 8.261548 1.1651907
4.451407 8.2548714 1.077739
4.4530101 8.2481937 0.99028707
4.4346228 8.238698 0.87298203
4.4295578 8.2310801 0.77557302
4.3978419 8.2197056 0.63836336
4.339469 8.2045717 0.46134424
4.2944245 8.1913176 0.30422783
4.2826986 8.1827602 0.19687128
4.2643108 8.173254 0.079566479
4.2592468 8.1656389 -0.01784277
4.240859 8.1561422 -0.13514709
4.1558347 8.137249 -0.35196877
3.9442039 8.1005049 -0.757864
3.9591293 8.0956945 -0.82542014
-8.1158142 8.1533432 3.4666049
-7.7779574 8.1915817 3.7913089
-7.6161032 8.2095709 3.9431
-7.5179253 8.2174978 3.9998379
-7.4055929 8.2276554 4.0777059
-7.2932653 8.2378139 4.1555653
-7.1950817 8.2457314 4.2123117
-7.1039777 8.252533 4.2584896
-6.9916506 8.2626905 4.336349
-6.8863926 8.2717228 4.4036565
-6.795289 8.2785234 4.4498339
-6.7041798 8.285326 4.4960203
-6.6272249 8.2898846 4.5210772
-6.5644193 8.2922039 4.525013
-6.4945388 8.2956467 4.5395088
-6.4388075 8.2968493 4.5328846
-6.3830767 8.2980528 4.5262594
-6.3344193 8.2981272 4.5090737
-6.2786875 8.2993298 4.502449
-6.2229567 8.3005333 4.4958248
-6.1672201 8.3017254 4.4892082
-6.0902653 8.3062849 4.5142651
-6.0345345 8.3074865 4.5076404
-5.9363556 8.315403 4.5643787
-5.8452463 8.3222055 4.6105647
-5.7470684 8.3301315 4.6673026
-5.6842628 8.3324509 4.6712384
-5.6214571 8.3347683 4.6751742
-5.5728002 8.3348436 4.6579885
-5.5170689 8.3360472 4.6513643
-5.4684119 8.336134 4.6341791
-5.4197493 8.3362112 4.617002
-5.3710928 8.3362865 4.5998168
-5.3082867 8.3386154 4.6037526
-5.245481 8.3409328 4.6076884
-5.1826754 8.3432512 4.6116238
-5.1211033 8.3450127 4.6137323
-5.0661926 8.3458309 4.6058917
-5.0112877 8.346652 4.5980425
-4.9630384 8.3465414 4.5802531
-4.9014721 8.3483009 4.5823526
-4.8398943 8.3500614 4.5844684
-4.7849894 8.3508825 4.5766201
-4.7567301 8.3479834 4.5289769
-4.715147 8.3469448 4.5012312
-4.6735649 8.3459053 4.4734855
-4.6319828 8.3448658 4.4457397
-4.5970674 8.3428869 4.4080377
-4.5288339 8.3455763 4.4200935
-4.4805903 8.3454676 4.4022961
-4.4390078 8.3444281 4.3745503
-4.4040871 8.3424587 4.3368559
-4.269218 8.3544655 4.4484296
-4.1676669 8.3618031 4.5102448
-4.0927725 8.3654213 4.5322495
-4.0378613 8.3662519 4.5244088
-3.9696283 8.3689308 4.5364647
-3.9147174 8.3697624 4.5286241
-3.8598123 8.3705826 4.5207758
-3.8049018 8.3714123 4.5129347
-3.7633195 8.3703728 4.485189
-3.7217374 8.3693333 4.4574432
-3.6801548 8.3682947 4.429697
-3.6385727 8.3672552 4.4019513
-3.5969901 8.3662157 4.3742056
-3.555408 8.3651772 4.3464599
-2.6542883 8.4843025 5.6023927
-2.5660596 8.4897814 5.644311
-2.4578476 8.4980583 5.7160749
-2.3829527 8.5016775 5.7380795
-2.27474 8.5099554 5.8098416
-2.1998398 8.5135736 5.8318553
-2.1182783 8.5181236 5.8638167
-2.0433834 8.5217419 5.8858218
-1.9751449 8.5244217 5.8978858
-1.9135728 8.5261822 5.8999944
-1.865329 8.5260715 5.8821959
-1.8104186 8.5269022 5.8743553
-1.7621748 8.5267925 5.8565593
-1.6939418 8.5294714 5.8686147
-1.6190418 8.5330915 5.8906274
-1.5574694 8.5348511 5.8927355
-1.495903 8.5366116 5.8948336
-1.4343307 8.5383615 5.8969426
-1.3727586 8.5401201 5.8990502
-1.3178482 8.5409403 5.8912096
-1.2562767 8.5426998 5.8933172
-1.1880429 8.5453796 5.9053745
-1.1264709 8.5471392 5.9074807
-1.0582379 8.5498295 5.9195371
-1.003327 8.5506496 5.9116974
-0.95508373 8.55054 5.8938994
-0.90017265 8.5513697 5.8860593
-0.84526271 8.5521898 5.8782187
-0.78369594 8.5539494 5.8803172
-0.70879543 8.55756 5.9023309
-0.64722389 8.5593195 5.904439
-0.5856514 8.5610781 5.9065466
-0.52407956 8.5628281 5.9086542
-0.46917522 8.5636587 5.900805
-0.40760282 8.5654087 5.9029131
-0.34603083 8.5671682 5.9050198
-0.28445941 8.5689173 5.9071279
-0.22288695 8.5706778 5.9092364
-0.16131508 8.5724277 5.9113445
-0.099743068 8.5741863 5.9134512
-0.038171649 8.5759363 5.9155593
0.023400843 8.5776978 5.9176674
0.077552736 8.5782166 5.9087009
0.13799185 8.5795097 5.9091287
0.19214937 8.5800171 5.9001713
0.24630132 8.5805368 5.8912044
0.3004528 8.5810556 5.8822379
0.35461035 8.5815649 5.87328
0.4024747 8.5813093 5.8549199
0.45663226 8.5818186 5.845962
0.5044961 8.5815639 5.8276014
0.55865407 8.5820723 5.8186445
0.60651797 8.5818176 5.8002834
0.66067505 8.5823269 5.7913256
0.70225739 8.5812874 5.7635803
0.75012219 8.5810328 5.7452197
0.79799217 8.5807667 5.7268686
0.84586161 8.5805025 5.7085161
0.88744396 8.579463 5.6807704
0.93530786 8.5792074 5.6624088
0.97689021 8.5781689 5.6346631
1.0247606 8.5779037 5.616312
1.0663428 8.5768642 5.5885663
1.1079253 8.5758257 5.5608206
1.1432195 8.5740118 5.5236802
1.1848019 8.5729733 5.4959345
1.2201025 8.5711498 5.4588041
1.255398 8.5693359 5.4216647
1.2969804 8.5682974 5.393919
1.3385625 8.5672579 5.3661733
1.3864319 8.5669937 5.3478208
1.4280143 8.5659542 5.320075
1.4695969 8.5649147 5.2923288
1.5048919 8.5631018 5.2551899
1.5464742 8.5620623 5.2274442
1.5880566 8.5610237 5.1996984
1.635926 8.5607586 5.1813459
1.6900778 8.5612774 5.1723795
1.7442296 8.5617971 5.163413
1.7983871 8.5623055 5.1544552
1.8525395 8.5628252 5.1454892
1.9066907 8.563343 5.1365228
1.9545602 8.5630779 5.1181707
2.0024304 8.5628138 5.0998187
2.0502951 8.5625582 5.081459
2.0981646 8.562294 5.0631065
2.1460345 8.562027 5.044755
2.1938994 8.5617723 5.0263953
2.2417688 8.5615082 5.0080433
2.2896323 8.5612431 4.9896827
2.3312149 8.5602036 4.961937
2.3727975 8.559165 4.9341908
2.4143796 8.5581255 4.9064455
2.4559617 8.5570869 4.8786993
2.4912627 8.5552731 4.8415685
2.5328453 8.5542336 4.8138227
2.5618579 8.5516357 4.7672968
2.5971527 8.5498247 4.7301574
2.6261654 8.5472269 4.6836314
2.6614604 8.545413 4.646492
2.6967554 8.5435991 4.6093526
2.7383375 8.5425606 4.5816069
2.7799201 8.5415211 4.5538607
2.8277893 8.5412569 4.5355091
2.8756592 8.5409918 4.5171571
2.9298115 8.5415115 4.5081911
2.9839637 8.5420294 4.4992251
3.0318329 8.5417643 4.4808731
3.0796971 8.5414991 4.4625125
3.1212792 8.5404606 4.4347668
3.15658 8.5386467 4.3976355
3.191875 8.5368338 4.3604965
3.2271752 8.5350094 4.3233643
3.2624702 8.5331984 4.2862244
3.297765 8.5313845 4.2490854
3.3267775 8.5287867 4.2025595
3.3557909 8.5261917 4.1560345
3.3910859 8.5243769 4.1188946
3.4200978 8.5217791 4.0723691
3.449105 8.5191927 4.025835
3.4781184 8.5165949 3.97931
3.513413 8.514782 3.9421694
3.5424263 8.5121841 3.8956461
3.5777211 8.5103712 3.8585055
3.6130214 8.5085487 3.8213739
3.6420286 8.5059605 3.7748401
3.671041 8.5033646 3.7283151
3.706336 8.5015507 3.691175
3.7416372 8.4997272 3.6540439
3.7706442 8.4971399 3.6075106
3.8059442 8.4953165 3.570379
3.8349516 8.4927292 3.5238447
3.863965 8.4901323 3.4773195
3.8992596 8.4883184 3.4401808
3.9219844 8.4849491 3.3842611
3.9509974 8.4823503 3.3377349
3.9737227 8.4789801 3.281817
4.0019774 8.4760809 3.2341659
4.0169082 8.4713125 3.1666169
4.0518298 8.4693451 3.1289232
4.0800834 8.4664364 3.0812731
4.1150045 8.464468 3.0435784
4.1365972 8.460639 2.9859788
4.1648507 8.4577303 2.9383276
4.1864438 8.4539032 2.880728
4.2080369 8.4500647 2.8231297
4.229629 8.4462366 2.7655296
4.2512274 8.442399 2.7079391
4.27282 8.4385595 2.6503394
4.2944126 8.4347324 2.5927403
4.3160057 8.4308939 2.5351412
4.3242698 8.4251976 2.4576361
4.3458633 8.4213686 2.4000363
4.3541322 8.4156713 2.32254
4.3557363 8.4090443 2.2350883
4.3706665 8.4042778 2.1675394
4.3722706 8.3976498 2.0800862
4.3805342 8.3919525 2.0025823
4.3888049 8.3862553 1.9250865
4.3904085 8.3796272 1.8376324
4.4053335 8.3748598 1.7700775
4.4069424 8.3682337 1.6826334
4.4152069 8.3625374 1.605128
4.41681 8.3559084 1.5176749
4.4250741 8.3502111 1.440171
4.4266834 8.343585 1.3527255
4.434947 8.3378868 1.2752202
4.443212 8.3321896 1.1977165
4.4448204 8.3255625 1.1102724
4.4530849 8.3198652 1.032768
4.4280376 8.3095102 0.90551281
4.4296403 8.3028822 0.81805897
4.3979311 8.2915974 0.6808567
4.3728833 8.2812424 0.55360174
4.3345075 8.2690268 0.40644169
4.3094587 8.2586718 0.27918625
4.3044009 8.2511139 0.18178558
4.2860088 8.2416887 0.064469337
4.2676277 8.2322626 -0.052828312
4.182611 8.2135296 -0.26964402
4.0176353 8.1836119 -0.60587382
3.9725981 8.1704569 -0.76298285
3.987529 8.165699 -0.83052993
-8.1145411 8.2280121 3.5107687
-7.9031506 8.2537498 3.7365103
-7.7908125 8.2638693 3.8143871
-7.6926293 8.2717562 3.8711343
-7.5378394 8.2885685 4.012383
-7.4184275 8.2998037 4.1008205
-7.3202448 8.3076801 4.1575675
-7.2291298 8.3144522 4.203763
-7.1167974 8.3245707 4.281631
-7.0115347 8.3335724 4.348947
-6.8991966 8.3436918 4.4268236
-6.8080873 8.350462 4.4730105
-6.7169785 8.357234 4.519197
-6.6470985 8.3606577 4.5336933
-6.5842876 8.3629646 4.5376377
-6.5144014 8.3663893 4.5521431
-6.4586706 8.3675814 4.5455184
-6.4029398 8.3687744 4.5388937
-6.3542824 8.3688507 4.5217085
-6.2985458 8.3700418 4.5150924
-6.242815 8.3712358 4.5084677
-6.1870775 8.3724279 4.5018511
-6.1242723 8.3747358 4.5057869
-6.0543866 8.3781595 4.5202923
-5.9915814 8.3804684 4.5242281
-5.8792434 8.3905764 4.6021051
-5.8022833 8.3951168 4.6271706
-5.7182493 8.4007711 4.6627965
-5.6483693 8.4041948 4.6772928
-5.5926318 8.4053879 4.6706767
-5.5439758 8.4054651 4.653492
-5.4882445 8.4066572 4.6468668
-5.4325075 8.4078484 4.6402512
-5.3697014 8.4101572 4.6441865
-5.3068905 8.4124651 4.6481309
-5.2440853 8.4147749 4.6520672
-5.1825132 8.416503 4.6541748
-5.1276083 8.4173136 4.6463261
-5.0726981 8.4181242 4.6384864
-5.0177937 8.4189234 4.6306381
-4.9628825 8.419734 4.6227975
-4.9079781 8.4205446 4.6149483
-4.8530674 8.4213448 4.6071081
-4.7981629 8.4221544 4.5992594
-4.7499189 8.4220448 4.5814619
-4.7216597 8.4191561 4.5338197
-4.686738 8.4171886 4.4961252
-4.6518173 8.4152288 4.4584303
-4.6035738 8.4151106 4.4406333
-4.5420074 8.4168491 4.4427328
-4.4937582 8.4167299 4.4249444
-4.4455152 8.4166098 4.4071474
-4.4039326 8.4155703 4.3794012
-4.3690109 8.4136133 4.3417072
-4.2141657 8.4282665 4.48312
-4.1259432 8.4336948 4.5250311
-4.0577106 8.4363461 4.5370879
-4.0028052 8.4371548 4.5292392
-3.9345675 8.439805 4.5413046
-3.879662 8.4406147 4.5334558
-3.831419 8.4404955 4.5156584
-3.7831695 8.4403858 4.4978695
-3.7349262 8.4402666 4.480072
-3.7000048 8.4383068 4.442378
-3.6517615 8.4381886 4.4245806
-3.6101792 8.437149 4.3968349
-3.5685968 8.4361105 4.3690891
-3.5270147 8.435071 4.3413429
-2.6259527 8.5531349 5.5972295
-2.5377307 8.5585546 5.6391406
-2.4295192 8.5667515 5.7109051
-2.354625 8.5703316 5.7329111
-2.2530804 8.5775995 5.7947187
-2.171519 8.5820961 5.8266821
-2.103286 8.5847464 5.8387384
-2.0217307 8.5892553 5.8706918
-1.9601591 8.5909863 5.8728004
-1.8985879 8.5927153 5.8749084
-1.8436824 8.5935249 5.8670602
-1.7887727 8.594326 5.8592196
-1.7272006 8.5960541 5.8613276
-1.6589675 8.5987148 5.8733845
-1.5907352 8.6013651 5.8854408
-1.5291691 8.6030931 5.8875413
-1.4675975 8.6048231 5.8896484
-1.4126872 8.6056347 5.8818088
-1.3577816 8.6064425 5.8739605
-1.2962105 8.6081743 5.8760686
-1.2279776 8.6108227 5.8881249
-1.159745 8.6134834 5.9001818
-1.0915116 8.6161318 5.9122396
-1.0299399 8.6178627 5.9143472
-0.98169667 8.6177521 5.8965492
-0.92679167 8.6185532 5.8887014
-0.87188137 8.6193628 5.8808608
-0.80364829 8.6220226 5.8929176
-0.74207664 8.6237516 5.8950262
-0.68050504 8.6254816 5.8971343
-0.61893862 8.6272116 5.8992338
-0.56402886 8.6280222 5.8913927
-0.5024572 8.6297522 5.8935013
-0.44755179 8.6305513 5.885654
-0.39264759 8.6313629 5.8778048
-0.32440895 8.6340113 5.8898697
-0.26950392 8.6348219 5.8820214
-0.20793226 8.6365519 5.884129
-0.14636633 8.6382809 5.886229
-0.08479473 8.6400108 5.8883371
-0.023222446 8.6417503 5.8904462
0.038348734 8.6434793 5.8925543
0.099162281 8.6449099 5.893537
0.15331316 8.6454182 5.8845692
0.21375257 8.6467028 5.8849974
0.26161721 8.6464357 5.8666387
0.31576857 8.646945 5.8576713
0.36992562 8.6474552 5.8487134
0.42407787 8.6479616 5.8397484
0.4719418 8.6477079 5.8213873
0.52609408 8.6482162 5.8124213
0.57396358 8.6479511 5.7940693
0.62811583 8.6484604 5.7851038
0.67597967 8.6481953 5.7667432
0.72384953 8.6479301 5.7483921
0.77171385 8.647665 5.730032
0.81958359 8.6474009 5.7116795
0.86116606 8.6463623 5.6839337
0.90903538 8.6460953 5.6655817
0.95061785 8.6450567 5.637836
1.00477 8.645566 5.6288705
1.0463525 8.6445265 5.6011248
1.0879347 8.6434879 5.5733786
1.1295171 8.6424484 5.5456328
1.1648118 8.6406345 5.5084934
1.2063942 8.639596 5.4807477
1.2416942 8.6377821 5.4436154
1.2832766 8.6367435 5.4158697
1.3185718 8.6349316 5.3787303
1.366441 8.6346645 5.3603783
1.4080236 8.633626 5.3326321
1.4496059 8.6325865 5.3048863
1.4849012 8.6307755 5.2677469
1.5264833 8.6297359 5.2400012
1.5617781 8.6279211 5.2028618
1.6033605 8.6268826 5.1751156
1.6512303 8.6266184 5.1567636
1.6990998 8.6263523 5.1384115
1.7595335 8.627635 5.1388311
1.8136857 8.6281452 5.1298656
1.8741248 8.6294279 5.1302938
1.9219942 8.6291618 5.1119413
1.9761461 8.6296721 5.1029749
2.0302987 8.6301804 5.0940094
2.0781622 8.6299152 5.0756488
2.1260319 8.6296511 5.0572977
2.1738966 8.6293955 5.0389366
2.2217665 8.6291285 5.0205851
2.2633488 8.6280899 4.9928398
2.3049309 8.6270504 4.9650936
2.3465135 8.6260118 4.9373479
2.3880959 8.6249723 4.9096022
2.4296782 8.6239328 4.8818564
2.4712603 8.6228943 4.8541107
2.5065553 8.6210823 4.8169699
2.535568 8.6184855 4.7704449
2.5771501 8.6174459 4.7426996
2.606163 8.6148567 4.6961741
2.6414638 8.6130457 4.6590424
2.6767585 8.6112328 4.6219029
2.7183409 8.6101942 4.5941572
2.7599232 8.6091547 4.566411
2.8015058 8.6081152 4.5386653
2.8556571 8.6086226 4.5296993
2.9035275 8.6083584 4.5113478
2.9639609 8.6096516 4.5117664
3.011831 8.6093855 4.4934149
3.059695 8.6091213 4.4750538
3.1075652 8.6088572 4.4567027
3.1428597 8.6070433 4.4195623
3.1844418 8.6060038 4.3918171
3.2134547 8.6034174 4.3452916
3.2487552 8.601594 4.3081608
3.28405 8.599781 4.2710209
3.3130627 8.5971918 4.2244959
3.3483634 8.5953798 4.1873636
3.3773763 8.5927925 4.1408386
3.4063842 8.5902052 4.0943046
3.441684 8.5883913 4.0571733
3.4706969 8.5858059 4.0106478
3.4997106 8.5832176 3.9641225
3.5287225 8.5806303 3.9175966
3.5577302 8.578043 3.8710632
3.5930309 8.57623 3.8339319
3.6283257 8.5744171 3.7967913
3.6573384 8.5718298 3.7502663
3.6926384 8.5700169 3.7131348
3.7279339 8.568203 3.6759951
3.7506652 8.5648308 3.6200843
3.7859597 8.5630198 3.5829439
3.8212597 8.5612068 3.5458121
3.8439863 8.5578442 3.4898932
3.8792808 8.5560312 3.4527543
3.9020114 8.5526695 3.3968425
3.9310241 8.5500822 3.3503168
3.9537497 8.5467215 3.2943978
3.9820089 8.5438337 3.2467546
4.003603 8.5400257 3.1891551
4.031857 8.5371361 3.1415031
4.0601172 8.5342588 3.0938601
4.0883708 8.5313692 3.0462093
4.116631 8.5284824 2.9985664
4.1448851 8.5256033 2.9509153
4.1664829 8.5217848 2.8933234
4.1880765 8.5179768 2.8357244
4.216331 8.5150986 2.7880723
4.2379293 8.5112915 2.7304802
4.2595224 8.5074825 2.6728802
4.281116 8.503665 2.6152816
4.2960477 8.4989376 2.5477333
4.3176403 8.4951286 2.490133
4.332572 8.4903908 2.422585
4.3408422 8.4847431 2.3450873
4.3557749 8.4800053 2.2775397
4.3573785 8.4734287 2.1900852
4.3723102 8.4687004 2.1225367
4.3739195 8.4621134 2.0350919
4.3755231 8.4555368 1.9476378
4.3837934 8.4498796 1.870141
4.3920636 8.4442329 1.7926433
4.4003348 8.4385748 1.7151465
4.4085994 8.4329166 1.6376407
4.4102092 8.4263411 1.5501955
4.4184742 8.4206829 1.4726908
4.4134216 8.4131861 1.3752959
4.4216919 8.4075298 1.2977996
4.4366188 8.402791 1.2302434
4.4382281 8.3962145 1.1427975
4.4464984 8.3905573 1.0652997
4.448102 8.3839808 0.97784638
4.4230609 8.373704 0.85059834
4.4113417 8.3652887 0.74324679
4.3929567 8.3559332 0.62593937
4.3679152 8.3456669 0.49869204
4.329546 8.3335419 0.3515377
4.3378162 8.3278942 0.27404022
4.3260927 8.3194675 0.16668081
4.2943897 8.3082733 0.029484272
4.2693424 8.2979984 -0.097771645
4.1510215 8.2747965 -0.36433315
4.0460224 8.2534456 -0.6109972
3.9876697 8.2385616 -0.78799748
3.9359727 8.224597 -0.95505619
-8.0637312 8.310441 3.6288822
-7.9160109 8.3260775 3.7595797
-7.803668 8.3361559 3.8374658
-7.7054739 8.3440037 3.8942301
-7.5577536 8.3596411 4.0249271
-7.431262 8.3719416 4.1239343
-7.3472233 8.3775663 4.1595697
-7.2561092 8.3843069 4.2057652
-7.1366916 8.3954916 4.2942119
-7.0384974 8.403348 4.350976
-6.904932 8.4167547 4.4605436
-6.8279662 8.4212751 4.4856176
-6.7368517 8.4280167 4.5318136
-6.6669669 8.4314194 4.546319
-6.6041555 8.4337187 4.5502634
-6.5413446 8.4360161 4.5542078
-6.4785337 8.4383135 4.5581527
-6.4228029 8.439496 4.551528
-6.3670659 8.4406786 4.5449123
-6.318409 8.4407558 4.5277267
-6.2626724 8.4419365 4.5211105
-6.2069416 8.44312 4.5144863
-6.1441307 8.4454184 4.5184307
-6.0813198 8.4477062 4.5223751
-6.0185089 8.4500055 4.5263195
-5.9415488 8.454524 4.5513854
-5.8575091 8.4601507 4.5870204
-5.7522411 8.4691124 4.654346
-5.6823559 8.4725275 4.6688509
-5.6195445 8.4748154 4.6727953
-5.5638132 8.4760075 4.6661701
-5.5010023 8.4782953 4.6701155
-5.4381914 8.4805927 4.6740599
-5.37538 8.482892 4.6780047
-5.3125691 8.4851809 4.6819491
-5.2505903 8.4870853 4.6846614
-5.1890192 8.4887962 4.68677
-5.1407752 8.4886665 4.668973
-5.0792041 8.4903755 4.6710815
-5.030961 8.4902468 4.6532845
-4.9693894 8.4919558 4.6553936
-4.914484 8.4927473 4.6475449
-4.866241 8.4926271 4.6297474
-4.8246589 8.4915876 4.6020017
-4.7697544 8.4923792 4.5941534
-4.7215052 8.4922485 4.5763645
-4.6999116 8.488471 4.5187645
-4.6649904 8.4865122 4.4810705
-4.6100855 8.4873018 4.4732218
-4.5551758 8.4880924 4.4653816
-4.5069323 8.4879723 4.4475846
-4.4653502 8.4869337 4.4198389
-4.4104452 8.4877234 4.4119902
-4.382185 8.4848547 4.3643475
-4.2673192 8.4938831 4.446054
-4.1591144 8.5019894 4.5178123
-4.0975485 8.5037003 4.5199122
-4.0359769 8.5053997 4.5220213
-3.9610834 8.5089378 4.5440273
-3.8995121 8.5106382 4.5461359
-3.8512688 8.5105181 4.5283394
-3.8030252 8.5103998 4.5105419
-3.7547817 8.5102692 4.4927444
-3.7131996 8.5092297 4.4649987
-3.671617 8.5081911 4.437253
-3.6233735 8.5080719 4.419456
-3.5817914 8.5070324 4.3917103
-3.5335422 8.5069036 4.3739214
-3.49196 8.5058641 4.3461757
-2.6242676 8.6182899 5.5522633
-2.5093956 8.6273184 5.6339779
-2.4078519 8.6345053 5.695787
-2.3196366 8.6398735 5.7376904
-2.2380812 8.6443224 5.7696462
-2.1565263 8.6487818 5.8016014
-2.0816326 8.6523104 5.8236084
-2.0067394 8.6558485 5.845614
-1.9451678 8.6575603 5.8477221
-1.8836024 8.6592579 5.849822
-1.8220305 8.6609697 5.8519316
-1.7604649 8.6626692 5.854032
-1.6988935 8.6643772 5.8561406
-1.6306611 8.6669979 5.8681984
-1.5624342 8.6696177 5.8802466
-1.5008633 8.6713276 5.8823552
-1.4459585 8.6721163 5.8745065
-1.3977093 8.6719866 5.8567185
-1.3428049 8.6727877 5.8488703
-1.2812388 8.6744871 5.8509707
-1.199679 8.678936 5.8829341
-1.1247852 8.682476 5.9049392
-1.0632195 8.684185 5.9070401
-1.0083089 8.6849756 5.8992009
-0.95340461 8.6857653 5.8913507
-0.89850026 8.6865549 5.883503
-0.83026719 8.6891756 5.8955617
-0.77535713 8.6899652 5.8877211
-0.71379101 8.6916752 5.8898211
-0.65888143 8.6924658 5.8819809
-0.59731537 8.6941652 5.8840818
-0.54241061 8.6949539 5.8762331
-0.48083967 8.6966648 5.8783417
-0.42593482 8.6974545 5.8704934
-0.37102431 8.698245 5.8626542
-0.30945295 8.699954 5.8647618
-0.24788746 8.7016544 5.8668633
-0.18631607 8.7033653 5.8689718
-0.13141125 8.704154 5.8611231
-0.069840312 8.7058649 5.8632317
-0.014935493 8.7066545 5.8553834
0.046629965 8.708354 5.8574834
0.10820138 8.7100649 5.859592
0.16863495 8.7113371 5.8600121
0.22278631 8.7118454 5.8510456
0.27693847 8.7123451 5.8420806
0.33108979 8.7128553 5.8331137
0.38524151 8.7133522 5.8241477
0.43938762 8.7138615 5.8151727
0.4872579 8.7135868 5.7968216
0.53512204 8.7133217 5.7784619
0.58927345 8.7138309 5.7694955
0.64342511 8.7143297 5.7605295
0.69128931 8.7140636 5.7421694
0.73915976 8.7138004 5.7238178
0.7870239 8.7135239 5.7054582
0.83489335 8.7132587 5.6871061
0.88275754 8.7129946 5.668746
0.93062752 8.7127285 5.6503935
