# .PCD v0.7 - Point Cloud Data file format
VERSION 0.7
FIELDS x y z
SIZE 4 4 4
TYPE F F F
COUNT 1 1 1
WIDTH 1731
HEIGHT 1
VIEWPOINT 0 0 0 1 0 0 0
POINTS 1731
DATA ascii
4.6500001 11.4506 8.0531101
4.7249999 11.5159 7.9812603
4.75 11.7135 7.7896805
4.6500001 11.7153 7.8375602
4.6750002 11.6488 7.8854599
4.7750001 11.6474 7.8495502
4.4749999 11.6511 7.9453101
4.5999999 11.5838 7.9692698
4.1499996 11.719 7.9333096
2.6499999 12.2471 7.3706598
2.6499999 12.1129 7.4664302
2.7249999 12.1804 7.4305201
2.75 12.5146 7.0713496
2.925 12.1824 7.4903598
2.9750001 12.182799 7.5023198
2.6499999 11.9787 7.5502405
-5.25 14.113601 3.61184
-5.2250004 13.7639 3.8791101
-5.0749998 13.9063 3.8534601
-5.5 13.6887 3.7776499
-5.3500004 13.8321 3.7774
-5.1500006 13.975901 3.78985
-5.1500006 14.115999 3.68802
-5.2250004 14.0443 3.6881399
-5.2000008 13.8347 3.85358
-5.2750006 13.763499 3.8664098
-5.4250002 14.0397 3.54847
-4.875 14.4703 3.5350401
-5.0500002 14.397299 3.4970801
3.0999999 9.8627405 8.9658003
3.4000001 9.9947901 8.8978996
3.2249999 10.061399 8.8752499
-4.6750002 14.3328 3.73843
-4 14.1176 3.7388101
-4 13.9746 3.75175
-3.3500001 14.4015 3.6367402
-3.9000003 14.116401 3.7007201
-3.675 13.186399 3.76583
-3.7749999 13.3278 3.7147801
-3.8750002 13.1878 3.80393
-4.5749998 10.7043 2.7867501
-4.6000004 10.7775 2.8123
-0.97500014 16.5886 -1.3717103
-1.0250001 16.438999 -1.1148
-1.1500001 16.513699 -1.25
-1.1000001 16.6637 -1.5069299
-4.3000002 7.6571999 3.0253398
-4.3000002 7.5002899 2.83476
1.8499999 10.8895 7.7300601
1.75 10.8878 7.69414
1.9750001 10.6858 7.7660298
2.25 11.1649 7.7659001
2.3 11.1655 7.7778697
2.4000001 11.0313 7.83777
2.25 12.508 6.8559299
2.3 12.508699 6.8798699
4 12.6448 6.7480803
3.0999999 11.1796 8.1010904
3.2749999 10.9826 8.2687807
3.05 10.9133 8.2448597
2.4250002 10.8305 7.93361
3.1750002 11.248301 8.11304
2.5250001 12.711699 6.6402802
2.7 12.7818 6.6402102
2.7750001 12.7159 6.7839103
2.95 12.7848 6.7479296
2.675 9.6574497 8.92068
2.2 9.3202801 8.94345
2.175 9.25453 8.9773798
2 9.18818 9.0000105
1.8999999 9.1868801 8.9774103
2.05 9.0562401 9.0565596
2.25 9.0555801 9.0452595
2.0749998 9.12251 9.0339403
2.875 9.1297102 9.1582203
2.0250001 9.2532501 8.9547796
2.325 9.1199007 8.98874
2.375 9.1185894 8.9661398
2.7249999 11.7769 7.6580005
2.7750001 11.7783 7.6939096
2.8499999 11.8468 7.6938896
2.8499999 11.712601 7.7657404
2.875 11.6455 7.8016701
3.05 12.3833 7.3347397
3.1750002 12.3165 7.3945904
2.8000002 11.5766 7.7897201
2.75 11.575701 7.7657795
3.125 11.6497 7.9094
3.325 11.9188 7.7896199
2.325 10.184299 8.6283703
2.375 10.3151 8.5325098
2.575 10.3194 8.6163197
3 11.447101 7.9693103
3.1750002 11.5169 8.0052004
2.8999999 11.7135 7.7896805
2.95 11.714001 7.8016496
2.9750001 11.7815 7.7776899
2.95 11.9817 7.6340103
4.0250001 12.578 6.8558602
4.1749997 12.5773 6.8319297
5.5249996 11.8808 6.7483597
5.625 11.8768 6.6406398
5.5500002 11.9451 6.6167102
5.3999996 11.952 6.8081999
5.6750002 11.7439 6.7842603
5.3249998 11.8899 6.9996996
2.95 18.169201 1.6752501
6.8999996 5.7049298 9.1631699
6.9499998 5.8400197 9.1743298
7.0249996 5.9063597 9.1628799
7.0249996 5.6324 9.1065197
7.0500002 5.7008801 9.1063795
6.4250002 6.4435301 9.1620903
6.9499998 6.2460299 9.2191305
4.4250002 9.39538 9.07903
4.4250002 9.5281 9.0337706
4.3000002 9.4629402 9.07901
4.3000002 9.3303299 9.1242599
4.4000001 9.4623299 9.0677004
4.0999999 9.3315897 9.1468601
3.875 9.6644697 9.0563202
3.9749999 9.6638794 9.0450201
4.0500002 9.7297401 9.0110798
4 9.5974808 9.0676498
3.9500003 9.5974808 9.0676498
3.8249998 8.9990501 9.22614
6.75 6.2483897 9.25317
6.8249998 6.1812596 9.2532797
3.9500003 8.9339304 9.26015
4.0999999 8.9339304 9.26015
4.0750003 8.8674803 9.2715597
4.0250001 8.8674803 9.2715597
4 8.9339304 9.26015
6.7749996 6.3147202 9.2417202
4.3000002 8.9319201 9.2262402
4.25 8.9325895 9.2375393
3.8499999 8.7983398 9.2377605
6.8499994 6.11414 9.2533903
3.325 9.2659903 9.1807795
4.0500002 8.8010397 9.2829695
4.0999999 8.8010397 9.2829695
4.0750003 8.7346096 9.2943897
3.325 9.1323195 9.2034197
6.7749996 6.0478201 9.2648497
6.8249998 5.91117 9.2309999
6.6749992 5.7793403 9.2652903
6.75 5.8456497 9.2538204
6.8000002 5.9798999 9.2536097
4.5999999 7.5820899 9.1151104
4.9249997 7.7778101 9.0242605
4.75 7.7135196 9.0696402
4.8250003 7.7792501 9.0468998
4.7750001 7.7799702 9.0582199
4.8500004 7.71135 9.0356703
4.9499998 7.9793601 9.0240097
4.625 9.3922901 9.0225201
4.4749999 10.058201 8.8074102
4.6500001 9.8565903 8.8414402
4.9249997 9.6516104 8.8076401
4.9000001 9.7188005 8.7962999
4.9749999 9.6510201 8.79634
4.3499999 9.9920902 8.8413696
4.0250001 10.061399 8.8752499
4.1999998 10.5249 8.6521406
4 9.9953299 8.9092102
4.0750003 9.9287395 8.9318495
4.3000002 9.8599501 8.9092703
4.2249999 9.7945194 8.9545298
4.2750001 9.7939501 8.9432201
5.0500002 9.45012 8.84167
5.0749998 9.6489105 8.7604094
5.0500002 9.5838299 8.8076801
5.125 9.6482096 8.7484303
5.1999998 9.58039 8.7484703
5.3499994 9.7083597 8.6166496
5.375 9.6411695 8.6286697
5.2749996 9.3769598 8.7485905
7.125 6.8334804 8.96875
5.7749996 8.4239597 8.6294603
6.0500002 8.7445993 8.3895798
5.0749998 8.8473406 8.9324999
5.25 8.6429996 8.8875008
5.1499996 9.0462999 8.8870897
5.4249992 8.8368807 8.7609406
5.375 8.8376799 8.7729197
5.4749994 8.9674997 8.7009306
5.8249998 9.3593206 8.4611197
5.8499994 9.4251404 8.4251595
5.6750002 9.0957499 8.5930195
5.5749998 9.0988197 8.6409397
5.0999994 9.1823692 8.8983202
5.1499996 9.1804304 8.8644199
5.6750002 8.5620003 8.67729
5.5 8.63344 8.7371502
5.2749996 9.5111399 8.7245598
5.2999992 9.5768404 8.68859
5.6750002 9.2300806 8.5690002
5.75 9.4287701 8.4850502
5.6750002 9.3644705 8.5449705
5.4499998 9.1704893 8.7007904
6.3999996 9.1227102 7.9461498
4.9499998 9.5844297 8.8189898
4.7750001 9.6545305 8.8641596
4.5749998 9.7911205 8.8866997
4.9749999 9.2519798 8.9321804
5.75 9.6944504 8.37712
5.9749994 9.3527098 8.3533306
6 9.2846403 8.3533602
5.4749994 9.5046701 8.6167593
5.4499998 9.3046904 8.6767597
5.3999996 9.4396801 8.66471
7.374999 6.6975603 8.9462194
5.2999992 10.2433 8.4606905
7.2249994 7.08395 8.7144699
6.0500002 9.1469803 8.3294601
6.1749992 8.9377699 8.2456999
6.0999994 9.1439505 8.2815495
7.25 7.1422005 8.6064501
6.1499996 8.7389498 8.3057098
5.6999998 7.1432004 8.6184397
5.8249998 7.2045803 8.5464201
5.8499994 7.1351604 8.52248
5.7749996 8.1545401 8.6296701
5.625 8.1598301 8.7015896
5.8249998 8.2875204 8.6055899
4.1999998 9.8605003 8.9205799
3.9500003 9.8633003 8.9771099
3.9749999 9.7967901 8.9997501
4.4500003 9.99154 8.83006
4.2249999 9.5299101 9.0676804
4.125 9.5305099 9.0789804
4.1999998 9.4635601 9.0903101
4.1749997 9.5299101 9.0676804
4.125 9.79566 8.9771395
4.1749997 9.7950897 8.9658298
4.2249999 9.6621294 9.0111103
4.25 9.5957003 9.03374
4.3499999 9.5951099 9.02244
3.5250001 12.0536 7.7297397
3.4749999 12.0531 7.7177706
3.5500002 12.1196 7.6579199
3.5750003 12.054 7.7417097
3.5750003 11.9214 7.8614302
3.5 11.9872 7.7895999
3.5500002 11.9877 7.8015699
3.5750003 11.654 8.0171194
4.8250003 12.169 7.0954204
3.7250001 12.3165 7.3945904
3.7749999 12.4478 7.16715
3.5999999 12.3814 7.27491
3.075 11.7824 7.8016305
3.2249999 12.0494 7.6100602
3.1500001 12.1158 7.55021
3.1750002 12.0494 7.6100602
3.2749999 12.0498 7.6220298
3.3500001 12.2482 7.40657
3.3750002 12.181601 7.4664197
3.325 12.181601 7.4664197
3.3 12.2486 7.4185295
3.425 12.052299 7.69384
3.2749999 12.182 7.4783897
3.6499999 12.5165 7.1311898
3.7 12.516101 7.1192198
2.4000001 10.2515 8.6163607
2.575 11.776 7.6340599
2.3499999 10.1196 8.6882896
3 12.116301 7.56217
3.3500001 11.853499 7.8734198
3.05 12.2498 7.4544401
3.4000001 11.986401 7.7656703
3.3750002 11.6535 8.0051498
3.425 11.787399 7.9332905
3.3750002 11.7869 7.92132
3.4000001 11.8539 7.8853898
4.2249999 12.0506 7.6459699
4.125 12.183599 7.5262599
4.2249999 12.314199 7.3227897
4.3499999 12.246699 7.3586998
4.3000002 12.247499 7.3826299
4.3499999 12.115 7.5262704
4.4500003 12.1134 7.4784002
4.4250002 12.0481 7.5741596
4.4749999 11.9149 7.68191
3.5999999 12.651899 6.9874501
3.5750003 12.5845 7.07129
3.5250001 12.5852 7.0952306
3.9500003 12.2506 7.4783697
3.9000001 12.251 7.4903398
3.9250002 12.3162 7.3826203
4.5249996 12.1775 7.3467402
4.375 12.1804 7.4305201
4.5749998 11.781899 7.7896605
4.625 11.9131 7.6340303
4.6500001 11.8472 7.7058597
4.5749998 11.914 7.65797
3.6499999 12.2506 7.4783697
4.2249999 11.9179 7.7656798
4.5749998 12.0451 7.4903803
4.5249996 12.046 7.5143204
4.6999998 12.1076 7.3108501
4.375 11.9157 7.7058396
5.4249992 11.494101 7.4426098
4.4250002 12.3111 7.2270498
2.875 11.1108 8.0891495
2.925 11.111401 8.10112
2.5250001 10.9678 7.9455299
2.675 10.9733 8.0652494
3.05 11.0469 8.1849403
3.0999999 11.0474 8.1969204
4.5249996 10.9875 8.3765202
4.4500003 10.921599 8.4244404
4.5749998 10.8531 8.4124994
4.6500001 11.0523 8.3046598
7.374999 6.3006201 9.0374594
7.0500002 6.3771596 9.1735306
6.5999994 6.7685699 9.0028505
4.1999998 10.7919 8.5562105
3.9250002 11.2556 8.2806301
3.9500003 11.057099 8.4124107
3.7500002 10.9239 8.4723301
3.875 10.9908 8.44835
4.0250001 12.184401 7.5501895
4 12.119101 7.6459498
3.9749999 12.0536 7.7297397
3.7749999 12.1865 7.6100297
3.7500002 12.1204 7.6818504
4.0999999 11.986 7.7537003
4.0500002 11.986401 7.7656703
4.0250001 11.920099 7.8255305
3.9250002 11.9206 7.8374996
4.0999999 11.8526 7.8494897
3.8 11.720901 7.9811902
3.8249998 11.7878 7.9452596
3.8499999 11.720901 7.9811902
3.8249998 11.654 8.0171194
3.7749999 11.654 8.0171194
3.875 12.1857 7.5860901
3.9749999 12.1848 7.5621595
4.1999998 11.057099 8.4124107
4.5 11.054501 8.3525505
4.375 10.9891 8.4124403
-0.35000002 12.0097 4.5801697
-0.32500005 11.9473 4.7452698
0 12.5405 3.75425
-0.050000072 12.273 4.1739097
0.099999964 12.2725 4.1612101
-3.825 14.900599 3.50892
-3.8 14.8297 3.5471301
-2.7249999 14.3235 3.4337201
-2.625 14.3232 3.42102
-2.55 13.9633 3.40892
-2.5 13.9629 3.3962202
-2.675 13.892301 3.4344401
-2.55 13.5384 3.58742
-2.575 15.040199 3.3436499
0.69999999 12.2009 5.98245
-2.75 14.539901 3.4587498
-2.7 14.539599 3.4460499
-2.55 14.5385 3.4079599
-2.7249999 14.611401 3.44593
-3.0000002 14.8297 3.5471301
-4.6750002 13.767401 3.9806898
-3.325 14.7607 3.6488202
-3.2500002 14.6889 3.6489401
-2.95 14.9731 3.5341899
-2.9750001 14.9012 3.5343099
-3.0000002 15.1164 3.5212498
-2.9750001 15.044899 3.53407
-2.925 14.900599 3.50892
-3.2500002 15.1164 3.5212498
-3.1500003 15.1167 3.5339501
-3.2 14.9747 3.5976701
-3.1000001 15.1167 3.5339501
-3.2 15.1167 3.5339501
-3.1000001 15.257999 3.4321501
-3.0000002 15.397901 3.2542002
-3.0250003 15.3282 3.35587
2.4250002 12.3103 7.2031102
2.0999999 12.2359 7.0355802
2.75 12.3803 7.2390103
2.675 12.447001 7.1432204
2.6000001 12.3791 7.2031102
0.87499994 11.472799 6.9159298
1.075 11.4791 7.0715399
1.075 11.6132 6.97577
1.25 11.6858 7.0715199
1.3249998 11.3533 7.35884
1.3499999 11.421 7.3348904
1.2 11.282 7.2989998
1.15 11.1456 7.3229604
1.125 11.212299 7.2750702
1.25 11.4186 7.2750397
1.075 11.3448 7.1553402
1.175 11.616899 7.0715299
1.2249999 11.618299 7.1074395
1.05 11.6785 6.8800201
1.15 11.6835 7.0116801
1.3499999 11.689099 7.1553102
1.2749999 11.753799 7.0475802
0.24999994 10.2972 6.8680706
0 8.7397594 8.3176899
0.69999999 10.3132 7.1794004
0.59999996 10.1724 7.1195402
0.52499992 10.2375 7.0476899
0.42499995 10.0984 7.0237503
0.34999996 10.1642 6.96387
0.67499995 10.1074 7.19139
0.54999995 10.0366 7.1554804
-0.20000005 9.5241899 7.80229
0.69999999 11.4004 6.83214
0.62499994 11.330299 6.8081999
0.89999992 11.0027 7.20327
0.99999994 11.0059 7.2751002
1.1 11.9486 6.7124596
1.2 11.9512 6.7842603
1.4000001 12.2248 6.7005
1.425 12.2912 6.6167302
-0.57500005 15.4458 2.1370399
-0.77499998 15.155999 2.1628299
-1.5 15.5163 2.0353899
-1.6500001 15.5179 2.1115501
-1.575 15.5871 1.9464297
-1.6750002 15.0232 2.6581299
-1.8 15.0976 2.7468898
-1.7249999 15.1672 2.63252
-1.6750002 15.165999 2.5817502
-1.55 14.948 2.5439899
-1.6000001 15.092701 2.5437701
-1.55 15.091499 2.49299
-1.2250001 15.157201 2.2136099
-0.72500002 15.446099 2.14973
-1.5 14.6571 2.4936299
-1.5 14.5119 2.4811502
-2.8999999 15.115801 3.4958601
-0.57500005 16.1742 1.9200602
-0.625 16.1738 1.89467
-2 14.382599 3.00192
-2.05 14.2415 3.1037199
-1.8750002 14.884099 2.8741701
-2.0250001 15.0317 3.00089
-2 15.102901 2.9626901
-2.175 14.745199 3.0775201
-2.0250001 15.175 2.96258
-2.2 15.249801 3.07671
-2.0999999 15.2477 2.9878502
-0.55000007 12.408 3.9958298
-0.35000002 12.4085 4.0085301
-1.7249999 13.3143 3.3592
-1.8 13.245299 3.4355202
-2.5 14.6809 3.35694
-2.3 14.819699 3.1662698
-2.4749999 15.0389 3.29287
-2.675 14.896999 3.3692799
-2.75 14.8257 3.3947899
-2.7249999 14.8976 3.39467
-2.7 14.8254 3.3820901
-2.575 14.7531 3.3695199
-2.325 14.6061 3.2554898
-2.4250002 13.6075 3.5111098
-2.4000001 13.537 3.54933
-2.325 13.466101 3.5748501
-2.3499999 13.536499 3.5366302
-2.3 13.676199 3.4221001
-2.375 13.606999 3.49841
-2.7750001 15.4657 3.0636699
-3.1250002 15.4657 3.0636699
-2.7750001 14.8983 3.4200602
-3.0250003 15.4657 3.0636699
2.4000001 17.577 1.6890302
2.9750001 16.9121 1.8298402
2.875 16.912001 1.8171501
2.8499999 16.9856 1.7789397
2.825 17.059299 1.7407398
2.825 16.6187 2.02075
2.3 17.7253 1.7648797
2.1500001 17.8734 1.8661098
2.1500001 17.577299 1.75247
1.9750001 17.5035 1.7906699
2.925 16.3284 2.3639801
3.125 16.328201 2.35129
3.125 16.4739 2.2367799
2.125 17.7995 1.85356
3 16.5462 2.1224201
3 16.6922 1.9952297
2.675 16.472401 2.12256
2.6499999 16.5452 2.0462699
2.8999999 16.4004 2.2496099
2.8499999 16.4002 2.2369201
1.7 18.021301 1.9165897
1.7249999 17.947399 1.9547901
1.7750001 17.947399 1.9547901
2.0999999 18.021301 1.9292698
2.8000002 17.2808 1.6768799
2.75 17.133001 1.7025299
3.4000001 16.400801 2.2749999
3.425 16.4741 2.24947
-3.425 15.4619 2.8859601
-3.8 15.113001 3.3816099
-3.7 14.972099 3.49611
-3.7749999 14.900901 3.52162
-3.8500001 14.8297 3.5471301
-3.9000003 15.2513 3.1401801
-3.675 14.4725 3.6112201
-3.6499999 14.544301 3.6111002
-3.6000001 14.687499 3.59816
-3.05 14.541399 3.5095301
-3.05 14.3969 3.4843798
-3.6499999 15.3914 2.96224
-2.95 14.684001 3.4712002
-2.925 15.4663 3.0890601
-3.05 15.5314 2.7589099
-2.825 14.754499 3.4203
-3.9250004 15.3193 2.9623499
2.5250001 6.2982702 9.0034199
2.6000001 6.2302899 8.9921494
2.675 6.16468 9.0149298
2.625 6.2974801 8.9920702
2.575 6.2974801 8.9920702
3.7250001 7.5222402 9.2284698
3.6499999 7.4536505 9.2059202
3.5750003 7.6572204 9.2395802
3.9000001 7.4536505 9.2059202
3.8249998 7.5222402 9.2284698
4.0750003 7.3835702 9.1607103
3.9250002 7.5222402 9.2284698
3.9500003 7.5901003 9.2396803
4.0250001 7.6572204 9.2395802
4.0500002 7.5893698 9.2283602
3.7250001 7.3857799 9.1946898
3.875 7.3857799 9.1946898
3.8499999 7.4543796 9.2172403
3.6499999 7.9928503 9.2390404
3.9250002 8.0606804 9.2502499
3.7749999 8.3256903 9.1932602
2.5 7.7286801 9.3073997
2.7249999 7.7964997 9.3186102
2.6499999 7.7286801 9.3073997
1.1499999 6.62497 8.86691
1.25 6.4951801 8.9351101
1.625 6.29356 8.9353304
1.2749999 7.10601 9.0250998
-0.6500001 8.4383898 7.8744302
-0.125 7.1876397 8.3424997
0.54999995 6.8727098 8.6066504
0.54999995 6.7369103 8.5947495
0.52499992 6.6684699 8.5827999
0.49999994 6.7348003 8.5707502
-0.050000072 7.2640905 8.4504204
0.12499994 7.0657001 8.4985304
0.59999996 6.8747902 8.63064
0.52499992 6.9400802 8.6065998
0.52499992 7.0788803 8.65448
0.074999928 7.0636802 8.4745398
0.14999998 7.1381798 8.5584602
0.39999998 6.3271098 8.5350294
0.049999952 6.43367 8.2229004
-0.025000095 6.4948297 8.1508598
0.074999928 6.6376405 8.2347994
-0.22500002 7.3149004 8.24648
0.074999928 7.4761705 8.57022
0 7.4039102 8.5102997
2.825 5.0525799 8.7170897
2.825 4.34512 8.5266094
2.875 5.2002201 8.8235292
3.1750002 4.3464198 8.53862
2.75 4.1388197 8.5271101
0.14999998 6.02672 8.2110701
0.39999998 6.1889 8.4991093
0.77499992 7.3560796 8.7502193
0.79999995 7.4253001 8.7741499
0.49999994 7.28584 8.7142992
-0.075000048 6.7603402 8.0907497
-0.10000002 6.6894503 8.05478
-0.025000095 6.7645297 8.1387501
0 6.6989398 8.1627693
0.14999998 6.8488302 8.3306904
-0.025000095 6.9060898 8.21068
-0.050000072 6.8301401 8.1147203
0.12499994 6.7770801 8.2827301
-0.17500007 6.7488298 7.9587698
0.024999976 6.9112396 8.2706699
0.44999993 6.33042 8.5710402
0.37499994 6.3934298 8.5229902
0.54999995 5.7643304 8.2952499
0.62499994 5.43578 8.4279203
0.62499994 6.5390902 8.64291
0.54999995 6.4684801 8.6069498
0.54999995 6.60215 8.5948496
0.34999996 6.4586902 8.49893
0.44999993 6.4641294 8.5589399
0.47499996 6.5326104 8.5709
0.34999996 7.0043898 8.5705605
0.29999995 7.0023403 8.5465603
0.24999994 7.1422005 8.6064501
0.32499999 7.2135596 8.6543798
-0.10000002 7.6595702 8.3302498
0.14999998 6.9951901 8.4625807
0.49999994 5.7596502 8.24722
0.74999994 6.6107197 8.6908598
0.79999995 6.6139302 8.72686
0.74999994 5.5069799 8.4517698
0.19999993 5.0190797 7.7202997
0.59999996 4.03544 7.5787001
0.54999995 3.89571 7.56706
0.49999994 4.30582 7.5179601
0.49999994 4.0328202 7.5546899
0.34999996 3.8877897 7.4950299
0.24999994 3.88515 7.4710197
0.32499999 3.9570303 7.4948497
0.47499996 3.8238397 7.5432301
0.47499996 3.9622898 7.54287
0.59999996 4.7500501 7.7930398
0.34999996 4.16606 7.50631
0.17499995 4.6217799 7.22891
0.27499998 4.6280699 7.2889404
0.049999952 4.8410597 7.3364201
0.47499996 4.6394 7.3969998
0.099999964 5.0080004 7.6122298
0.32499999 4.9524198 7.7444901
0.19999993 4.6936502 7.2527299
0.47499996 4.5008202 7.3973603
0.42499995 4.49828 7.3733501
0.32499999 4.4957399 7.34934
0.34999996 4.43154 7.3975401
0.29999995 4.4302602 7.3855305
0.27499998 4.4944701 7.3373303
0.27499998 4.3635302 7.40973
0.39999998 4.4328103 7.4095502
0.49999994 4.5701103 7.3971801
-0.10000002 4.4200602 7.2894902
0.24999994 4.8733497 7.6486101
1.875 5.19239 8.7407799
2.05 5.5450101 8.8454504
1.925 5.4763899 8.8456001
1.8249998 5.3366399 8.8118505
2 5.1188002 8.6929102
2.0250001 5.0451598 8.64505
2.4749999 5.48136 8.9137402
2 5.4052701 8.8117008
2.4749999 5.33916 8.8459206
2.4250002 6.16152 8.9695301
2.4000001 6.2302899 8.9921494
2.4000001 6.0935402 8.9582596
2.45 6.0943303 8.9696102
2.45 6.2302899 8.9921494
2.3 5.9567399 8.9243498
2.3499999 5.95754 8.9357004
2.375 5.8903399 8.9357805
2.325 5.4755597 8.8342505
2.325 5.75351 8.9018497
2.375 5.1887197 8.7047596
0.84999996 5.64814 8.4874697
1.2 5.2500801 8.6325493
2.125 4.74892 8.4415798
2.375 4.74892 8.4415798
2.3 4.8227401 8.48944
2.5250001 4.3347898 8.4305706
2.4749999 4.1971602 8.4308996
2.05 4.8239903 8.5014496
1.95 4.9727297 8.60919
1.9750001 4.74892 8.4415798
1.8499999 4.8239903 8.5014496
2.175 5.0426903 8.6210299
2.4250002 5.0439301 8.6330395
2.5 5.1200299 8.7049198
2.6000001 5.1237302 8.7409401
2.175 5.7502799 8.8564301
2.2 5.6830502 8.8564901
2.2250001 5.6136298 8.8452902
2.1500001 5.8183098 8.8677197
2.5 4.8227401 8.48944
3.5500002 3.9854498 8.3833799
4.8500004 3.7719202 7.69946
0.99999994 5.0978703 8.48878
0.074999928 3.67204 7.4235401
-0.42500007 3.6546597 7.2674899
-0.32500005 3.6586695 7.3035002
-0.85000002 4.2685199 7.1697898
0.44999993 5.6220403 8.2232695
5.6499996 4.2711701 8.4787502
5.0500002 4.40874 8.4784203
5.1999998 4.4216099 8.5984793
5.5749998 4.3502903 8.5746403
6.4250002 7.3031402 8.1025505
6.4749994 7.30019 8.0665703
6.375 7.3070602 8.1505299
6.3249998 7.3099999 8.1865101
6.5249996 7.7010698 7.9944901
4.1999998 9.0655203 9.2147303
4.2249999 8.9990501 9.22614
2.675 17.5028 1.6510901
2.5 17.5769 1.6763401
-0.67500007 16.5879 -1.4797101
-0.89999998 16.814301 -1.7639003
-0.97500014 16.739 -1.61516
-1.4750001 15.842999 -0.34403896
-1.6500001 16.214701 -0.81726503
-0.050000072 14.7864 1.90944
-3.5750005 13.0455 3.8295801
-3.7749999 11.3204 3.5757098
-4.5 10.4917 2.8245101
-4.25 10.7902 3.02842
-4.2750006 10.4382 3.1168399
-4.4250002 10.5687 2.91364
-4.4250002 10.7126 2.9266
-4.25 10.6487 3.0536101
-4.4750004 10.4224 2.86253
-4.4000006 10.499499 2.9516599
-4.5249996 10.2752 2.7987101
-3.675 13.044999 3.81688
-3.7250001 13.0455 3.8295801
-4.3000002 10.9346 3.05407
-3.825 11.171 3.4484301
-3.9750001 12.7691 4.0713897
-4.0750008 11.0184 3.2702799
-4.1499996 11.1005 3.4610403
-3.8750002 11.3252 3.6646798
-3.9000003 10.9514 3.3464398
-3.8500001 10.9536 3.3845701
-3.7500002 11.0983 3.42291
-4.1000004 10.942699 3.1939001
-4.0750008 10.8713 3.1937902
-4.0250006 10.8735 3.23193
-3.6499999 11.245001 3.4993601
-4.1000004 10.7984 3.1682599
-2.125 12.4716 3.8178802
-2.2 12.4011 3.84341
-2.2749999 13.4652 3.5494499
-2.3 13.395301 3.6003702
-2.2250001 13.6052 3.4476199
-2.2 13.534699 3.4858301
-2.3499999 13.3957 3.61306
-2.45 13.3967 3.6384602
-2.4250002 13.3259 3.6639798
-1.8 12.964 3.5884001
-1.8750002 12.8948 3.6520298
-0.82500005 12.0717 4.40237
-0.875 12.0711 4.3896599
0.29999995 12.0492 5.6233902
-1.95 13.249201 3.5371099
-0.875 12.2046 4.2246499
-2.1500001 12.970201 3.7408001
-2.1500001 13.1121 3.7024503
-2.125 13.1824 3.6642301
-1.7750001 12.4648 3.6654699
-1.2 12.1254 4.0467401
-1.175 12.1927 3.9705999
-0.82500005 13.1436 2.6736701
-0.875 13.146099 2.73717
-1.075 13.433801 2.6986299
-1.05 13.3629 2.73684
-1.25 13.2311 3.06724
-0.95000005 13.219399 2.76246
-1.375 12.4546 3.4368401
-1.1500001 12.660501 3.2078698
-1.125 12.589 3.22069
-1.1000001 12.6588 3.1697702
-1.125 12.730301 3.15695
-1.175 12.5907 3.25879
-1.2 12.662099 3.2459698
-1.25 12.6643 3.2967799
-1.175 12.731899 3.19505
-1.4750001 12.598901 3.4492998
-0.625 12.996 2.5976901
-0.5 13.057799 2.3308899
-0.77499998 12.725499 3.04265
-0.52499998 12.9924 2.50879
-0.52499998 13.127799 2.2672901
-0.375 12.9832 2.2802
-1.2 12.8045 3.2076399
-0.72500002 13.2776 2.3940699
-0.70000005 13.2071 2.4449799
-0.70000005 13.0683 2.59758
-0.57500005 13.130701 2.3434899
-1.0250001 12.8712 3.0805202
-1.1500001 13.227699 2.9783499
-1.075 13.1551 2.96576
-1.05 12.9433 3.0804
-1.1000001 13.086499 3.05477
-0.72500002 12.6023 3.5255101
-0.70000005 12.5377 3.6907401
-1.425 12.597799 3.4239001
-1.3500001 12.5254 3.4113197
-1.25 12.5231 3.3605199
-1.3500001 12.667 3.36028
-1.375 12.7389 3.3601601
-0.55000007 12.7906 2.87743
-0.60000002 12.7922 2.9155302
-0.89999998 12.9371 2.928
-1 12.5187 3.2589099
-1.075 12.4529 3.3987398
-0.92500007 12.5868 3.1698802
-0.80000007 12.656599 3.1189702
-1.0250001 13.2921 2.7750499
-0.17500007 12.854401 2.6741099
-0.67500007 12.8602 2.8138099
-0.82500005 13.003599 2.7881899
-0.80000007 12.933 2.8263998
-1.05 12.6572 3.13166
-1.6000001 12.244901 3.56422
-1.425 12.3138 3.5005901
-1.4000001 12.3839 3.4623702
-1.375 12.3138 3.5005901
-0.30000007 11.8833 4.89327
-0.45000005 11.877501 4.7579398
-0.95000005 11.458899 4.83319
-0.80000007 11.5997 4.8332701
-0.55000007 11.7413 4.8572903
-0.80000007 11.8699 4.6054797
-0.5 12.5394 3.7288501
-0.92500007 11.7994 4.6054301
-0.89999998 11.7321 4.66891
-1.2 11.585199 4.55445
-1.125 11.655701 4.5545001
-1.075 11.7943 4.5037799
-1.1000001 11.725 4.52914
1.1 16.2486 1.9579902
1.025 15.594099 2.28915
0.82499993 16.174801 1.9581299
-0.025000095 14.7116 1.8333602
0.29999995 11.1152 6.6286302
0.27499998 10.7765 6.7842603
0.19999993 10.7057 6.7483401
0.24999994 10.7074 6.7842603
0.29999995 10.8456 6.7842603
0.19999993 10.4323 6.8081999
0.27499998 10.366199 6.8680706
0.32499999 10.6424 6.8680706
-0.92500007 10.1825 5.9939499
-0.89999998 10.2509 5.9700103
-0.55000007 10.2688 6.3172603
-0.6500001 10.2638 6.2214699
-0.57500005 10.0638 6.37711
-0.60000002 10.1312 6.3411899
-0.57500005 10.738299 5.97013
-0.45000005 10.271299 6.36516
-0.85000002 9.5622501 6.1015902
-0.80000007 9.5657301 6.1614699
-0.92500007 9.3529005 6.08957
-0.97500014 9.3543406 6.1135197
-0.97500014 9.4912996 6.07762
-1 9.5594692 6.0536804
-0.075000048 10.7597 6.4250798
-0.95000005 8.9542999 7.45506
-0.92500007 8.8916101 7.5389104
-0.97500014 8.7561998 7.55089
-0.875 9.0275602 7.5269198
-3.0000002 13.3995 3.7146602
-2.75 13.1172 3.8294501
-2.825 13.1878 3.80393
-2.7249999 13.3278 3.7147801
-2.7 13.257601 3.753
-2.7 13.116699 3.8167498
-2.6000001 13.1157 3.7913501
-2.6499999 13.2571 3.7402999
-2.6000001 13.2566 3.7276001
-2.55 12.9749 3.8550999
-2.5 12.9744 3.8424001
-2.4000001 13.255601 3.7022099
-2.375 13.1849 3.72773
-2.4749999 12.9032 3.8552299
-0.20000005 12.541599 3.7796502
-0.2750001 12.6083 3.66522
-0.075000048 12.6078 3.6525202
-0.5 12.671401 3.46188
-1.2 13.0895 3.1309702
-1.3000002 13.093 3.2198701
-1.175 13.018399 3.1564898
-1.2250001 13.1605 3.1054502
-1.6000001 12.674101 3.5253901
-1.55 12.672999 3.49999
-1.425 12.74 3.3855598
-1.425 12.8828 3.3599203
-0.42500007 12.6078 3.6525202
0.14999998 11.375299 6.2216597
0.24999994 11.5132 6.1977401
0.12499994 11.4418 6.1498499
0.34999996 11.9202 5.9225502
0.27499998 11.7149 6.01825
0.099999964 11.507999 6.0660801
0.49999994 11.928 6.13798
-0.20000005 7.65206 8.2343197
-0.050000072 7.6661496 8.4141903
-0.10000002 7.5282702 8.3782892
-0.050000072 7.5330505 8.4382601
-0.075000048 7.3296099 8.4263897
-0.80000007 8.2932196 7.74263
-0.6500001 7.7550201 7.8146195
-0.5 9.5064001 7.5028701
0.19999993 10.9768 6.6286302
0.22499996 10.9104 6.6884799
0.099999964 10.9714 6.5089097
0.27499998 11.180301 6.5328703
-0.52499998 9.1835403 7.8263497
-0.60000002 9.2430401 7.68259
-0.6500001 9.24156 7.6586404
-0.20000005 9.8669996 6.5806704
-0.1500001 10.1452 6.6046295
-0.2750001 10.3449 6.4489799
-0.30000007 10.1382 6.4729104
-0.22500002 9.9349098 6.5567203
-0.45000005 9.1211901 7.9222002
-0.75 9.1037493 7.6466904
-0.57500005 9.0490103 7.8623199
-0.5 8.8495998 7.9342499
-0.375 8.7849598 7.9821901
-0.32500005 8.9244699 8.0420504
-0.5 8.7147398 7.94627
-0.57500005 8.6452799 7.9223199
-0.10000002 9.7775097 7.4429302
-0.17500007 9.7115898 7.4908504
0.024999976 9.8468399 7.4548903
-0.875 8.7617893 7.6347499
-1.0250001 8.6199999 7.5508804
-1.0250001 7.7973404 7.47891
-1.0250001 7.65452 7.3949704
-1 7.7291899 7.47891
-1.075 7.6489396 7.32302
-1.1000001 7.5647197 7.1191697
-1.4000001 4.1037803 6.9300599
-1.75 7.5612702 5.2967701
-1.05 7.0188999 5.47576
-1.125 7.0884199 5.4758701
-1.175 6.9463797 5.4396701
-1.075 6.8072805 5.4394498
-1.2 6.7336402 5.3913603
-1.45 6.8738103 5.4035702
-1.4750001 6.6599398 5.3432503
1.05 15.6676 2.3398199
-2.2250001 8.7288799 5.0471702
-2.25 8.3797703 5.0465302
-2.2749999 8.4504099 5.05864
-2.0250001 8.3274107 5.2980499
-1.6500001 8.9679899 5.5025501
-1.5250001 9.0521898 5.7301598
-1.625 7.9192104 5.4292002
-1.5 8.1321697 5.48946
-1.5 7.9905195 5.45329
-2.0250001 8.1864204 5.27385
-1.6750002 8.3415594 5.50176
-2.1500001 9.36269 5.0835099
-0.92500007 11.2578 5.0724802
-1.5 10.4895 5.15591
-1.5 10.3546 5.2636003
-1.95 10.6184 4.9165201
-1.8750002 10.5493 4.9404302
-2.2 10.339 4.9522901
-1.1000001 10.6458 5.49121
-1.45 10.6276 5.1080799
-1.25 10.7735 5.22787
-1.0250001 11.1194 5.1202903
-1.7 10.757999 4.8926497
-1.3500001 10.6321 5.2038698
-1.125 10.8469 5.2997398
-1.0250001 10.8507 5.3835402
-0.97500014 10.987 5.2997999
-1.0250001 10.9854 5.2638798
-1.1000001 10.9153 5.2638502
-0.92500007 10.7197 5.5750399
-2.2 10.8857 4.6556396
-2.25 10.7493 4.7318201
-1.8500001 10.6184 4.9165201
-1.125 11.3853 4.77035
-1.55 10.7607 4.9525099
-1.45 10.901299 4.95259
-1.425 10.833799 5.0124102
-1.5 10.762401 4.98843
-1.4000001 10.7663 5.0722404
-1.6500001 10.897 4.8568201
-1.425 12.0472 3.8942299
-1.5250001 12.4575 3.5003498
-1.5 12.3856 3.5004702
-2.3 9.7806196 5.02385
-2.375 9.5684996 4.9997797
-1.9000001 10.342 5.0121603
-2.825 12.1951 4.02141
-2.7 12.4085 4.0085301
-2.05 11.423599 4.1731
-0.57500005 10.6036 6.0658803
-0.57500005 10.8732 5.8743901
-0.47500002 10.8775 5.97017
-0.72500002 9.6441698 6.3171701
-1.0250001 9.3557796 6.1374798
-0.47500002 9.9303093 6.4728899
-0.5 9.8590202 6.4369597
-1 9.6965704 6.0177798
-0.47500002 11.0125 5.8744302
-0.60000002 10.401 6.1855698
-1.375 10.2943 5.4551601
-1.075 10.1731 5.8143301
-1.375 10.1594 5.55089
-1.1500001 10.2385 5.7305298
-0.30000007 11.7489 5.06076
-0.45000005 11.7444 4.9410701
-0.32500005 12.2076 4.2881598
-0.17500007 12.3399 4.0721698
-0.050000072 12.408 3.9958298
0.049999952 12.2725 4.1612101
-0.025000095 12.3405 4.0848699
-0.1500001 12.4074 3.98313
-0.075000048 12.3399 4.0721698
-0.10000002 11.3644 5.9583101
-0.2750001 11.2903 5.8505597
-0.30000007 11.613501 5.1923499
-0.4000001 11.746201 4.9889503
-0.80000007 11.33 5.1204
-0.42500007 11.274799 5.4794798
-0.4000001 11.3428 5.4316201
-0.70000005 11.0644 5.4674301
-3.1250002 12.341599 4.11027
-3.05 12.412 4.0847397
-2.9750001 12.3405 4.0848699
-0.625 12.0729 4.4277701
-1.4750001 11.5126 4.5162702
-1.45 11.31 4.6813397
-1.55 11.307899 4.6432099
-1.3500001 11.4482 4.6306
-1.5250001 11.3763 4.6051302
-2.5 12.2631 3.9579802
-1.075 11.521399 4.6814699
-1.75 11.4359 4.4018497
-1.7249999 11.3694 4.4780397
-1.75 11.3009 4.51612
-1.55 11.1726 4.7448001
-1.7750001 11.0986 4.6812
-1.75 11.1669 4.6431103
-1.7750001 10.9636 4.7828002
-1.7249999 10.9643 4.7955198
-1.8 11.1655 4.6176901
-1.7249999 11.2346 4.59232
-1.7 11.168301 4.66853
-1.2750001 11.3812 4.6940899
-1.5 11.0372 4.8449202
-1.625 11.102201 4.74475
-1.45 11.1748 4.7829299
-0.82500005 11.1267 5.28789
-0.67500007 10.9987 5.56317
-0.82500005 10.8578 5.5391798
-0.875 10.8562 5.5032601
-1.2750001 10.975901 5.0483999
-1.2 11.0456 5.0364599
-1.3000002 11.042399 4.9646401
-1.3500001 11.0409 4.92872
-1.25 11.179 4.8689399
-1.3000002 11.177899 4.8450003
-1.1500001 11.182 4.9407697
-1.4000001 11.0393 4.8928099
-0.6500001 11.4699 5.1085
-0.52499998 11.406 5.26407
-0.875 11.665 4.7323899
1.3 15.6681 2.3652098
1.2249999 15.741301 2.4031799
1.175 15.741301 2.4031799
1.05 15.8143 2.4284599
1.025 15.741099 2.3904898
1.25 15.814701 2.45385
1.3499999 16.104599 2.1867299
1.575 16.3232 2.0086198
1.5 16.2502 2.05953
1.5999999 16.3962 1.9450202
1.55 16.396 1.9323301
1.55 16.2505 2.0849099
1.375 16.3225 1.95785
2.0250001 16.3249 2.1228399
1.9750001 16.324701 2.1101501
1.8999999 16.2521 2.18644
1.875 16.324501 2.09746
1.95 16.3974 2.0338597
1.8 16.251699 2.1610601
2.0749998 15.591299 2.1495299
1.3249998 17.356699 1.9812799
-2.8999999 4.1585999 4.8282299
-2.825 4.2277999 4.816
-2.75 4.1624198 4.8642502
-2.825 4.0906801 4.8524599
-2.7750001 4.2290697 4.8280101
-2.4250002 4.6342397 4.6498899
-2.4749999 4.5046 4.76441
-2.45 4.5700202 4.71349
-2.6499999 4.4327998 4.7519503
-2.675 4.3661699 4.7901998
-2.7 4.43151 4.7392702
-2.625 4.3687601 4.8155599
-2.7750001 4.3635802 4.7648401
-2.875 4.49052 4.6249499
-2.7 4.5598397 4.6120701
-2.825 4.6190701 4.4977698
-1.8 4.1746001 6.2933698
-1.8 4.2988901 6.1489
-1.55 4.2209101 6.7255802
-1.825 8.47894 5.4780102
-1.5 7.15309 5.4160099
-1.55 7.5695701 5.4046798
-1.6500001 7.5658798 5.35672
-1.6000001 7.8478703 5.4051204
-1.6750002 7.7747002 5.35706
-1.8 7.9861498 5.3933601
-1.7 7.9896398 5.4412999
-1.8750002 7.0658698 5.2000103
-2 6.8476806 5.09168
-1.95 6.5705905 5.11517
-1.9750001 6.6393399 5.1033001
-2.0250001 7.9059896 5.2494001
-2.0749998 7.9033504 5.2134399
-1.925 7.9077497 5.2733803
-1.9000001 7.6987495 5.2730298
-2.0999999 7.69241 5.1891098
-2.05 7.8354201 5.2372999
-2.0999999 7.8327498 5.2013402
-2.0250001 7.7657299 5.2371798
-1.425 6.0942302 5.2463303
-2.3 7.8176203 4.99755
-2.575 7.8786702 4.87781
-2.2749999 7.4711399 5.0328603
-2.3 7.3994303 5.00876
-0.60000002 6.6430397 7.5268097
-0.52499998 6.5759897 7.5387998
-0.55000007 6.3684096 7.50278
-0.57500005 6.4343801 7.4787898
-0.5 5.9459701 7.3586903
-1.2250001 4.5802398 6.8326802
-1.25 4.5144801 6.8688898
-1.05 4.5296502 7.01297
-1.075 4.5915699 6.9407406
-1.2750001 4.4474897 6.8930902
-1.3000002 4.3805199 6.9173002
-1.25 4.3843498 6.95331
-1.4000001 4.73174 6.2797799
-0.57500005 5.8628502 7.2026
-0.6500001 5.9243703 7.13059
-0.92500007 4.7218299 6.8563199
-1 4.6585603 6.9165401
-0.875 4.6016397 7.0367999
-0.75 4.5384998 7.0970201
-0.72500002 4.6041598 7.0608101
-0.30000007 4.6735997 7.0606298
-0.35000002 4.5460896 7.1690598
-0.4000001 4.6723499 7.0486202
-0.47500002 4.6079302 7.0968299
-0.47500002 4.4779701 7.1812501
-0.70000005 4.5397701 7.1090198
-0.67500007 4.6054101 7.0728197
-0.52499998 5.72966 7.2385802
-0.45000005 5.6648602 7.2745895
-0.75 4.7876401 6.8201103
-0.35000002 5.24124 7.1792202
-2.0250001 7.6245098 5.2129602
-1.9000001 3.7492099 6.23454
4.0999999 17.7244 1.4857497
3.9500003 17.5765 1.5748301
4.0500002 17.5765 1.56214
4.0250001 17.502501 1.5876498
4.1999998 17.5762 1.5113902
5.1499996 10.6449 8.3287907
4.8250003 10.8497 8.3406706
5.1999998 11.3064 7.8736
5.5249996 11.227201 7.6222301
5.4499998 11.2963 7.6341801
4.9249997 11.246799 8.0771198
4.75 11.050699 8.2687492
4.8500004 11.1822 8.1609507
5.2999992 10.9072 8.1131697
6 10.8756 7.4307499
6.2249994 10.7962 7.20329
6.2749996 10.7934 7.1434298
6.0249996 10.6759 7.56249
6.1999998 10.732 7.2990799
5.5500002 11.291699 7.5264401
6.4499998 10.847301 6.8201699
6.375 10.7872 7.0117302
6.5 10.9736 6.5567904
6.5249996 10.906501 6.6046796
6.4499998 10.9779 6.6525698
5.7999992 10.4894 7.9456902
5.7749996 10.4241 8.0055904
5.875 10.4193 7.9098001
6.0500002 10.2104 7.8380098
6.0749998 10.1426 7.8500099
6.0749998 10.2757 7.77812
6 10.346 7.8140202
5.9749994 10.4138 7.8020296
6.0249996 10.4113 7.7541299
7.374999 6.8273997 8.8780499
5.5500002 10.2357 8.3169994
5.875 9.4910002 8.3892002
5.8999996 9.4229603 8.3892298
7.4499998 6.76018 8.8781099
7.5499992 6.88205 8.7146301
7.5499992 6.62497 8.86691
6.5249996 9.3159599 7.7544398
6.5 9.2504702 7.8023701
6.5 9.38515 7.7664003
6.5499992 9.3815107 7.7065101
6.5249996 9.4500103 7.70649
6.4749994 9.1850395 7.8502998
6.4499998 9.25418 7.8622603
7.625 7.0646896 8.4865398
6.0749998 9.4802094 8.2095404
6.0500002 9.6812296 8.1495705
5.9499998 9.6861 8.2333994
5.8999996 9.68888 8.2813101
5.8249998 9.7583704 8.3052301
5.8499994 9.6909704 8.3172407
6.0249996 9.61584 8.1975002
6.0500002 9.5483799 8.2095098
5.8249998 9.4924402 8.4131498
5.9250002 9.6214695 8.2933207
5.1499996 10.9111 8.19697
5.3249998 10.9722 8.0413103
5.4749994 10.702499 8.1132498
5.3249998 10.575 8.2929001
5.25 10.908299 8.1371098
3.9749999 18.0951 1.4089599
4 18.020899 1.4217801
4.0250001 18.0951 1.3962698
3.9250002 18.0951 1.4216499
3.9749999 18.243601 1.3579497
4.3000002 12.1158 7.55021
5.1750002 11.8961 7.1672602
4.9499998 12.0993 7.0714898
5.0500002 11.9658 7.1911902
5.25 11.8281 7.1911998
4.6750002 12.1731 7.2150998
3.5 11.3181 8.1489201
4.9000001 12.1014 7.13133
5.0250001 12.1621 6.8919702
4.0750003 12.4474 7.15518
4.3000002 12.3791 7.2031102
4.0500002 12.381001 7.2629399
4.3000002 17.2803 1.60075
4.4250002 17.2057 1.5247397
4.3249998 17.0585 1.6519098
4.375 17.0581 1.60115
4.1749997 17.798401 1.4348598
-1.7249999 14.1595 2.7864101
-1.4750001 13.8696 2.7614598
-1.6750002 14.0166 2.83742
-1.4000001 13.939001 2.6724701
-2.575 14.8956 3.3185
-2 14.669301 2.9379799
-2.05 14.670401 2.9760699
-2.0749998 14.5986 2.9888799
-2.125 14.600401 3.0523601
-2.25 14.388999 3.2177601
-2.2 14.387501 3.1669698
-2.1500001 14.3864 3.1288798
-1.7 13.5241 3.1937699
-2.5 14.2489 3.3449602
-2.0999999 14.9612 3.0644801
-2.175 14.1726 3.20541
-2.3 14.3901 3.2558501
-2.175 14.4584 3.1287699
-2.3499999 14.3917 3.3066299
-1.9750001 13.7401 3.1934202
-1.925 13.5993 3.2825398
-1.9750001 13.600599 3.3206298
-2 13.6712 3.2824199
-2.0999999 13.673 3.3332098
-3.6499999 14.8304 3.5725198
-3.9750001 14.9002 3.4962301
-4.1999998 14.968901 3.3691599
-4.0750008 14.8999 3.48353
-3.9250004 14.900599 3.50892
-4.125 15.178301 3.1022201
-4.0250006 15.0408 3.36904
-4.1499996 15.108999 3.2165799
-0.375 14.715401 1.9730101
-1.075 13.8577 2.40593
-1.05 13.928101 2.34233
-0.95000005 13.9247 2.2407601
-1.175 14.002999 2.4184101
-1.075 14.000501 2.3422301
-1.0250001 13.9981 2.2660499
-0.95000005 14.0673 2.16436
-0.20000005 12.672501 3.4872901
-2.175 14.8901 3.10268
-1.7 12.819301 3.5632498
-1.5250001 12.7432 3.4617598
-1.6000001 12.8167 3.4997399
-1.6500001 12.5321 3.56373
-1.4750001 12.7416 3.4236598
-1.5250001 12.600601 3.4874101
-1.925 12.4682 3.7416701
-1.95 12.5405 3.75425
-1.8750002 12.4671 3.71627
-0.89999998 11.1911 5.15624
-0.55000007 11.2033 5.4435396
-3.1750004 12.9069 3.9441299
-0.075000048 10.8956 6.3652406
0.049999952 11.1032 6.3533001
0.12499994 10.4984 6.7483296
-0.125 10.3498 6.5447798
0.19999993 10.5687 6.7722797
-0.2750001 10.6164 6.3292799
-0.17500007 10.621 6.4250698
-4.6750002 12.357901 4.46591
-4.4250002 11.931701 4.42766
-2.0250001 10.6871 4.88064
-2.0749998 10.548699 4.9284601
-4 12.416599 4.1863499
-4.0250006 12.488 4.1862202
-3.9500005 12.5573 4.1352801
-3.9000003 12.4143 4.13554
-4.4000006 12.985701 4.1217999
-4.3000002 12.844899 4.1728601
-4.2250004 13.0532 4.0200701
-4.0500002 12.7003 4.1350203
-4.0750008 12.6304 4.1732602
-4.1000004 12.8411 4.0839601
-4.1750002 12.7728 4.1602898
-4.1750002 12.912101 4.0711298
-4.375 11.1894 3.7788901
-4.2750006 11.024899 3.38468
-4.4500008 11.112599 3.67712
-3.9500005 11.844501 4.09727
-3.9250004 12.0595 4.1483002
-4.0250006 11.919701 4.1862702
-4 11.9905 4.1863399
-4.4250002 11.4951 4.1858697
-3.5500004 10.422299 4.0068398
-4.375 11.3439 4.0078101
-3.9750001 13.0491 3.9184701
-3.6000001 12.552799 4.03368
-3.5750005 12.4818 4.0465002
-3.5500004 12.552799 4.03368
-3.6250002 12.3393 4.0594602
-3.6499999 12.267799 4.0595899
-3.7749999 12.055201 4.0593801
-3.7749999 11.9116 4.0211201
-3.825 12.7658 3.9951899
-3.6000001 11.9806 3.9830799
-3.6499999 12.1248 4.03404
-3.7 12.1254 4.0467401
-3.675 12.0534 4.0212698
-3.4000003 12.1248 4.03404
-3.4000003 12.2683 4.0723
-3.5000002 12.552799 4.03368
-3.5250003 12.196301 4.0468202
-3.5000002 12.267799 4.0595899
-3.7250001 12.197499 4.0722198
-3.7749999 12.482901 4.0719099
-3.7 12.4108 4.05933
1.5249999 16.4692 1.8814297
1.8249998 16.469999 1.94488
1.7 16.3965 1.9704099
1.9750001 15.741301 2.4031799
2.175 15.7404 2.3524101
-3.05 15.397901 3.2542002
-3.2 15.257401 3.4067602
-2.875 14.899599 3.47084
-3.3 15.3962 3.1780298
1.425 16.911501 1.7663898
0.7249999 17.355999 1.8670797
0.99999994 17.135599 2.0324597
1.3499999 17.578402 2.0062399
0.57499993 16.914501 2.07095
0.54999995 16.988199 2.05812
0.27499998 16.7666 2.0458498
0.37499994 16.914099 2.0328798
0.49999994 16.8407 2.07109
0.39999998 16.9877 2.00736
0.39999998 17.134199 1.8548002
0.47499996 17.207899 1.8292899
0.57499993 17.208599 1.9308
0.57499993 16.6187 2.02075
0.94999993 16.248199 1.93261
0.97499996 16.1754 1.9962101
0.89999992 16.394899 1.8561797
0.92499995 16.616701 1.8557701
0.79999995 16.543098 1.88129
0.97499996 16.6164 1.83039
0.92499995 16.468699 1.8433499
0.54999995 16.5446 1.9955101
0.52499992 16.6189 2.0334401
0.64999998 16.3955 1.8942599
0.099999964 16.9856 1.7789397
0.39999998 16.5452 2.0462699
1.625 16.911299 1.7410097
1.5999999 16.9853 1.74087
1.675 17.059299 1.7407398
1.7249999 17.0592 1.7280397
1.7 17.1334 1.7532897
1.6499999 17.133499 1.7659798
1.8499999 16.985001 1.7154899
1.6499999 16.837301 1.7411399
1.75 16.985201 1.7281799
2.1500001 17.280901 1.68957
2.125 17.2069 1.6897097
1.9750001 17.058901 1.7026601
2.25 17.1329 1.6898398
1.0499998 17.135399 2.0070801
1.075 17.209301 2.01963
1.025 17.2094 2.03232
1.25 17.1348 1.9309397
1.125 17.2092 2.0069399
1.375 16.763601 1.7666602
-0.22500002 16.469999 1.94488
0.12499994 16.4716 2.0590999
0.27499998 16.3232 2.0086198
-3.075 15.5996 2.5557101
-3.1250002 15.599001 2.5303199
-2.925 15.5993 2.54302
-3.2250001 15.597699 2.4668601
-3.3750002 15.4619 2.8859601
-3.0000002 15.5314 2.7589099
-2.7750001 14.7542 3.4076002
-3.1000001 15.5314 2.7589099
-2.7249999 14.7538 3.3949099
-2.1500001 15.3897 2.88608
-2.05 15.387499 2.7845199
0.074999928 16.765699 1.9570198
-2.1500001 15.525299 2.46697
-2.0999999 15.526099 2.5050499
-2.0250001 15.4567 2.6447802
-1.9750001 15.455601 2.5940099
-2.3499999 15.528999 2.64467
0.099999964 16.8393 1.9315
0.7249999 17.062099 2.0706701
0.77499992 17.062 2.0579801
0.67499995 17.2092 2.0069399
0.97499996 16.764999 1.8935599
0.82499993 16.7658 1.9697099
1.1 16.8386 1.8680501
1.1 16.987 1.9312201
1.425 16.469 1.8687401
1.4749999 16.322901 1.9832401
1.3 16.542301 1.8178296
0.44999993 16.3965 1.9704099
0.32499999 16.471399 2.0464101
-3.2500002 13.9641 3.4343202
-3.1250002 14.035999 3.4341998
-3.2749999 13.8918 3.4217398
2.2 16.3981 2.08463
2.175 16.4709 2.0083399
2.7750001 16.3277 2.31321
2.55 15.8121 2.31422
2.575 16.3267 2.2497599
2.7 16.3997 2.1988499
2.7750001 15.8858 2.31408
4.25 12.9016 5.8979001
4.3000002 12.899899 5.8380499
4.2750001 12.834101 6.0057302
4.5499997 12.762899 5.9818902
2.625 11.2385 7.8855901
2.55 11.3044 7.8257098
2.6499999 11.3059 7.86163
3.7500002 12.913699 6.3408003
3.875 12.7138 6.7121
3.9500003 12.5135 7.03545
-4.5 14.964 3.1787298
-4.4750004 14.755499 3.45838
-4.3000002 14.8277 3.4709599
-3.9750001 14.7586 3.5726399
-4.0250006 15.454599 2.5432301
-4.5249996 14.8947 3.2804103
3.1500001 17.133301 1.7406001
3.125 17.502699 1.6384101
3.05 17.7248 1.6253099
3.1500001 17.5767 1.6255798
3.3 17.428701 1.6512299
3.2 17.428701 1.6512299
3.5250001 12.850501 6.5922499
3.2749999 12.851501 6.62816
3.3750002 12.851501 6.62816
3.2 13.045799 6.0174098
-1.4750001 15.303201 2.2514799
-1.325 15.5876 1.9718199
-1.25 15.5163 2.0353899
-1.1500001 15.5163 2.0353899
-1.425 15.587399 1.9591298
-1.8500001 15.241601 2.7212701
-0.57500005 15.735499 2.0985501
-0.625 15.735499 2.0985501
-1 15.0838 2.1756301
-0.875 15.155999 2.1628299
-1.2250001 15.0134 2.26459
-0.92500007 15.155999 2.1628299
-1 15.2283 2.1500399
-0.95000005 15.083501 2.16293
-0.57500005 15.301199 2.1626298
-0.55000007 15.3738 2.1625199
-0.5 15.3738 2.1625199
-1.05 15.5168 2.06077
-0.92500007 15.589701 2.07337
-0.72500002 15.301199 2.1626298
-1.5250001 15.162399 2.42942
-1.25 14.7965 2.2902999
-1.175 15.731999 1.9208498
-1.2 15.6601 1.9590297
-0.60000002 15.6628 2.09865
-0.52499998 15.59 2.08606
-0.6500001 15.6628 2.09865
-0.35000002 15.5184 2.13693
-0.52499998 15.7352 2.08586
-0.30000007 15.518899 2.1623199
-0.4000001 15.5176 2.09885
-0.72500002 15.735001 2.0731599
-0.89999998 15.6621 2.06057
-0.82500005 15.590199 2.0987499
-0.85000002 15.3732 2.13714
-0.92500007 15.445299 2.11165
-1.075 15.4447 2.0862601
-1.55 15.2342 2.4039199
0.12499994 15.5936 2.2637601
0.19999993 15.6664 2.27636
-0.32500005 16.1758 2.0215898
-0.42500007 16.3218 1.9070897
-0.025000095 16.471199 2.03372
-1.3000002 13.936 2.58359
-1.2750001 13.8641 2.59639
-1.125 13.436601 2.7748199
-1.2250001 13.5802 2.7492101
-0.5 15.5176 2.09885
-0.5 15.6623 2.0732601
-1.55 15.6573 1.8193998
-1.0250001 15.155999 2.1628299
-1.05 15.2283 2.1500399
-1.075 15.300301 2.1245399
-1.125 15.300301 2.1245399
-1.325 15.301199 2.1626298
-1.375 15.3018 2.18802
-1.3500001 15.2301 2.2261999
-1.2 14.2188 2.36731
-0.75 14.7911 2.0871701
-0.875 14.7185 2.08727
-0.42500007 14.715401 1.9730101
-0.52499998 14.5683 1.90973
-0.47500002 14.5676 1.8843398
1.4000001 11.1534 7.5025296
0.57499993 9.4902906 8.3772202
1.375 8.9810801 8.9210501
1.5249999 9.1146698 8.8983498
1.3 9.3069201 8.7126904
1.3499999 9.3076601 8.7246704
1.225 9.2405901 8.7366905
1.3249998 9.2413406 8.7486696
1.25 9.1750402 8.7726603
1.4000001 9.1771994 8.8079195
1.4000001 9.3076601 8.7246704
0.87499994 9.4989204 8.5209494
0.52499992 9.3578501 8.43717
-0.35000002 7.0859098 7.93468
-0.4000001 6.9400201 7.8147502
-0.2750001 6.6046901 7.8628006
-0.1500001 6.4173498 8.0428696
-0.10000002 6.42171 8.0908699
-0.22500002 6.6110702 7.9347997
-0.25 6.4064798 7.9228497
-0.42500007 6.8546 7.6108003
-0.60000002 7.3455801 7.7907004
-0.82500005 7.3951998 7.5628304
-0.1500001 7.9271002 8.2941399
0.52499992 7.89152 8.7137995
0.94999993 7.69836 8.8318701
-0.1500001 6.5507302 8.0188198
-0.125 6.8968201 8.1027002
-0.025000095 6.6291399 8.1387997
0.92499995 6.9555297 8.7865601
1.05 6.8931103 8.8552999
0.69999999 7.0146098 8.6905298
0.84999996 6.88413 8.7386303
0.87499994 6.6844096 8.7628002
0.89999992 6.7516794 8.7627401
0.82499993 6.8147502 8.7146902
0.49999994 8.8907099 8.5572195
0.59999996 8.89466 8.6171198
0.69999999 9.03016 8.6289902
0.62499994 8.9620199 8.6170702
0.49999994 9.0239706 8.5331593
0.59999996 9.0278406 8.5930605
0.7249999 8.9651499 8.6649904
0.99999994 7.7005296 8.8658304
0.82499993 7.3590198 8.7862101
0.49999994 8.7583199 8.5932598
0.57499993 8.8273001 8.6171703
0.52499992 8.8256998 8.5932102
0.54999995 8.8930798 8.5931597
0.82499993 7.8970098 8.7857294
0.74999994 7.9642496 8.7856703
0.7249999 7.8960905 8.7737398
0.79999995 7.9651604 8.7976599
0.69999999 7.9633498 8.7736797
0.84999996 7.9658704 8.80898
0.57499993 8.02701 8.7256699
0.47499996 8.8241005 8.5692501
0.67499995 8.6999102 8.7251101
2.2250001 10.0505 8.6643705
2.2749999 10.0511 8.6763496
2.4000001 9.8530006 8.7722692
2.4749999 9.9214706 8.7842102
2.325 9.9187803 8.7362995
2.0999999 9.4507303 8.8529701
2 9.4495106 8.8303699
2.05 9.45012 8.84167
2.4000001 9.7188005 8.7962999
2.1500001 9.58111 8.7604504
2.175 10.3094 8.4247398
2.175 10.4382 8.2809801
2.0999999 10.3707 8.2929897
1.8249998 10.957399 7.71807
0.84999996 11.2688 6.9877601
0.89999992 11.6743 6.7722902
1.3499999 11.9555 6.9039502
1.425 11.8908 7.0236301
1.1749998 11.7511 6.97577
1.2249999 11.886 6.8919802
1.7249999 12.0304 7.0715003
2.175 12.0371 7.26299
2 11.967501 7.2390599
2.0999999 11.9683 7.2630005
2.2749999 11.6371 7.5862198
2.25 11.4353 7.6820297
2.7 11.8441 7.6220803
2.45 11.9765 7.4904003
1.375 11.4888 7.3109403
1.8999999 11.1613 7.6820998
1.875 11.2288 7.6581402
1.925 11.2293 7.6701097
2.05 11.5676 7.5622997
2.8000002 11.3095 7.9454198
2.7750001 11.2422 7.9693804
2.625 11.1045 7.9454899
1.5999999 11.1571 7.5863304
1.7 11.023701 7.6701598
2.625 11.7765 7.6460304
2.55 11.708 7.6460505
2.4250002 11.639 7.6341004
2.5250001 11.6404 7.6700101
2.5 11.4388 7.76582
2.4250002 11.370299 7.7658401
2.2250001 11.7715 7.5143704
2.3 11.8397 7.5023899
2.175 11.6366 7.5742497
2.1500001 11.0275 7.7539601
2.2250001 9.9167604 8.7003794
2.2250001 9.7817698 8.71243
2.25 9.58253 8.7844105
2.0250001 10.3026 8.2930202
2.05 9.97929 8.6045303
2.1500001 9.9819508 8.6524296
1.8499999 11.8317 7.2869501
1.675 11.7624 7.2749896
1.675 11.8965 7.1792297
6.6499996 5.84726 9.2765303
6.624999 5.9151797 9.2877798
6.25 5.84726 9.2765303
6.1749992 5.9127798 9.2537098
3.5250001 9.1323195 9.2034197
3.5 9.1991501 9.1921005
3.4749999 9.2659903 9.1807795
3.5250001 9.2659903 9.1807795
3.25 9.0655203 9.2147303
3.1750002 8.9990501 9.22614
3.3 8.9319201 9.2262402
2.8000002 9.3271904 9.0677595
2.7 9.1894703 9.0226097
2.7249999 7.9307103 9.3183804
2.575 7.9300003 9.3070593
2.5250001 7.7957802 9.3072901
2.4749999 7.9300003 9.3070593
2.4000001 7.9963999 9.2956295
3.3750002 8.7312202 9.2378702
3.4749999 8.7298603 9.2152605
3.075 8.7325697 9.2604694
2.75 8.9265804 9.1358404
3.1750002 8.7325697 9.2604694
2.8999999 8.6647701 9.24928
2.9750001 8.4634104 9.2496004
2.925 8.4634104 9.2496004
2.7750001 8.5956001 9.2154694
2.7249999 8.4627199 9.2382898
2.875 8.4634104 9.2496004
-3.4750001 13.6084 3.5365
-2.95 13.259 3.7911003
-3.7500002 13.970401 3.6247802
-4.6500006 14.6837 3.4585099
-4.8000002 14.681201 3.3696399
-4.8250008 14.749999 3.25526
-4.8000002 13.555 4.04457
-4.7250004 13.6256 4.0190401
-4.7750006 13.6256 4.0190401
-4.0500002 13.4029 3.80355
-3.9750001 13.4727 3.7526298
-3.8 10.9551 3.4100001
-3.5250003 11.035 3.5626299
-3.325 13.3283 3.7274799
-2.7750001 15.0427 3.44521
-3.4750001 14.4729 3.62392
-2.8999999 14.395801 3.44629
-2.875 14.178599 3.39586
-2.4250002 14.7507 3.2806501
-2.375 14.7497 3.2425601
-2.95 14.251301 3.4211402
-4.4250002 14.333899 3.77652
-0.32500005 9.0589705 8.0180502
-0.55000007 8.9829397 7.8982801
-0.5 8.9844894 7.9222403
-0.52499998 8.9166498 7.9222598
-0.47500002 8.9174299 7.9342299
-0.30000007 9.3909702 7.8622198
-0.42500007 9.3189001 7.80235
-0.57500005 9.30861 7.6346598
-0.375 9.5750303 7.5028501
-0.47500002 9.5715094 7.4429698
-0.075000048 9.4643898 7.9460397
-0.17500007 9.3306599 7.9939899
0.19999993 8.7470207 8.4255199
-0.075000048 9.7129707 7.5148001
0.099999964 9.7904301 7.6704702
0.29999995 8.8843803 8.46138
0.54999995 9.92945 7.7063704
1.2749999 11.0816 7.4307203
1.3499999 11.0156 7.4905901
1.5249999 11.2231 7.5264602
1.025 10.939301 7.3229899
1.15 11.0102 7.3708696
0.42499995 8.9549799 8.5092497
0.52499992 8.95889 8.56915
0.54999995 9.0262899 8.5690994
0.54999995 9.2928095 8.4851103
-0.89999998 8.4274702 7.7186399
-1.925 8.1940498 5.3817
-4.6999998 11.7198 4.4274902
-4.4000006 11.2681 3.9187698
-2.575 10.253 4.6806498
-2.5250001 10.2554 4.7188001
-2.55 10.321799 4.6552601
-3.1000001 9.7501001 4.54039
-3.1250002 10.2334 4.3754296
-3.0000002 10.3048 4.3882003
-2.9750001 9.5554905 4.78197
