# .PCD v0.7 - Point Cloud Data file format
VERSION 0.7
FIELDS x y z
SIZE 4 4 4
TYPE F F F
COUNT 1 1 1
WIDTH 1572
HEIGHT 1
VIEWPOINT 0 0 0 1 0 0 0
POINTS 1572
DATA ascii
4.6526227 10.298153 1.3642454
4.6620202 10.289103 1.2872639
4.6714211 10.280043 1.2102909
4.680819 10.270992 1.1333096
4.6902213 10.261942 1.0563369
4.7061291 10.254198 0.98933554
4.7090144 10.24383 0.90237498
4.7184114 10.23478 0.82539272
4.7212968 10.224411 0.73843217
4.7241817 10.214043 0.65147209
4.7205496 10.202358 0.55452371
4.7299523 10.193308 0.47755003
4.700263 10.176373 0.34066844
4.7031479 10.166003 0.2537086
4.6864872 10.151692 0.13679338
4.689373 10.141326 0.049832344
4.6727123 10.127016 -0.067082167
4.643023 10.110069 -0.20396328
4.5677361 10.083942 -0.41072536
4.3426113 10.027572 -0.84711742
4.3389788 10.015896 -0.94406557
-7.6985579 10.302505 2.9475737
-7.5735278 10.318697 3.047626
-7.4554148 10.333322 3.137095
-7.3996 10.333955 3.1312199
-7.2261205 10.361021 3.3054233
-7.0595565 10.386541 3.4690411
-6.94837 10.399618 3.5479083
-6.8579488 10.40802 3.5949984
-6.7606053 10.417991 3.6526799
-6.6840267 10.423278 3.6785841
-6.6143689 10.427026 3.6938941
-6.5447063 10.430765 3.7092142
-6.475049 10.434505 3.7245247
-6.4053917 10.438242 3.7398357
-6.3426557 10.440422 3.744554
-6.2799196 10.442603 3.7492728
-6.2033415 10.447899 3.7751765
-6.1267624 10.453196 3.8010802
-6.0709486 10.453828 3.7952054
-6.0082126 10.45601 3.7999237
-5.9385548 10.459749 3.8152349
-5.8550544 10.466602 3.8517311
-5.7923141 10.468784 3.8564577
-5.729578 10.470964 3.8611763
-5.6737633 10.471597 3.8553009
-5.6110277 10.473778 3.8600194
-5.5413704 10.477517 3.8753309
-5.4786348 10.479705 3.8800483
-5.4158993 10.481888 3.8847666
-5.346242 10.485626 3.9000778
-5.2696629 10.490922 3.9259815
-5.2138486 10.491545 3.9201074
-5.1649561 10.490621 3.9036398
-5.1160631 10.489695 3.8871722
-5.0671701 10.48877 3.8707047
-5.0113506 10.489392 3.8648391
-4.9486151 10.491574 3.8695571
-4.8581929 10.499987 3.9166465
-4.7885356 10.503724 3.9319575
-4.7188783 10.507463 3.9472685
-4.6561427 10.509644 3.9519868
-4.5934067 10.511834 3.9567049
-4.5375924 10.512457 3.9508302
-4.4821882 10.512839 3.9443424
-4.440217 10.510356 3.9172821
-4.3917289 10.509181 3.9002104
-4.3432403 10.508004 3.8831387
-4.2882409 10.508127 3.8760467
-4.2267294 10.509565 3.8789344
-4.1717296 10.509698 3.8718421
-4.1102133 10.511127 3.8747382
-4.0552135 10.511259 3.8676457
-4.0002136 10.511391 3.8605537
-3.9517307 10.510216 3.8434734
-3.9032426 10.50904 3.8264012
-3.8547597 10.507864 3.8093209
-3.8062716 10.506678 3.7922492
-3.7512722 10.50681 3.785157
-3.6962724 10.506943 3.7780647
-3.6347606 10.508381 3.7809522
-3.5732441 10.509809 3.783849
-3.5052156 10.512558 3.7967238
-3.4176476 10.519217 3.8395476
-3.3365908 10.524569 3.8723917
-3.275074 10.526008 3.8752875
-3.213563 10.527436 3.8781753
-3.1650748 10.526261 3.8611038
-3.0644727 10.535537 3.9239035
-2.9899325 10.539589 3.946758
-2.9153929 10.543633 3.9696145
-2.8408475 10.54768 3.9924784
-2.7793312 10.549118 3.9953742
-2.7243366 10.54925 3.9882739
-2.6693316 10.549381 3.9811893
-2.6143317 10.549504 3.9740977
-2.5593376 10.549635 3.9669971
-2.5043321 10.549767 3.959913
-2.4363039 10.552504 3.9727898
-2.32919 10.563087 4.0455689
-2.2611618 10.565833 4.058444
-2.1931336 10.568569 4.0713205
-2.1316226 10.570008 4.0742078
-2.0635943 10.572744 4.0870843
-2.0020776 10.574184 4.0899796
-1.9405663 10.575624 4.0928669
-1.8855668 10.575745 4.0857754
-1.8240496 10.577185 4.0886712
-1.7560216 10.579932 4.1015468
-1.7075387 10.578747 4.0844669
-1.6590506 10.57757 4.0673952
-1.6170793 10.575087 4.0403352
-1.5685961 10.573951 4.023252
-1.5070798 10.575342 4.0261512
-1.4455677 10.57683 4.0290351
-1.3840518 10.578218 4.0319343
-1.309507 10.582225 4.0548015
-1.2414788 10.584971 4.0676765
-1.1734506 10.587717 4.0805521
-1.118451 10.587849 4.0734596
-1.0699673 10.586723 4.056376
-1.0149676 10.586857 4.049283
-0.95345122 10.588245 4.0521827
-0.89193946 10.589734 4.0550671
-0.81739485 10.593739 4.0779338
-0.75588304 10.595227 4.0808172
-0.68785441 10.597975 4.0936933
-0.6198262 10.600721 4.1065683
-0.55831039 10.602111 4.109467
-0.49028143 10.604858 4.1223435
-0.42877108 10.606247 4.1252346
-0.36725372 10.607736 4.1281266
-0.29922551 10.610484 4.1410007
-0.24422538 10.610615 4.1339097
-0.18922561 10.610747 4.1268167
-0.13422596 10.610878 4.1197252
-0.079226494 10.611011 4.1126323
-0.024226546 10.611143 4.1055403
0.043801665 10.613889 4.1184158
0.11183029 10.616636 4.1312909
0.17334628 10.618025 4.1341906
0.24137443 10.620772 4.1470656
0.29636866 10.620904 4.1399651
0.36440253 10.623652 4.1528492
0.42591375 10.625041 4.1557398
0.48743075 10.62653 4.1586318
0.54894143 10.627919 4.1615229
0.61696994 10.630666 4.1743984
0.69802648 10.636026 4.207242
0.77908331 10.641389 4.2400846
0.86665785 10.648109 4.2829127
0.9542259 10.654728 4.3257394
1.0417986 10.661347 4.3685741
1.1163387 10.665451 4.3914251
1.1908841 10.669456 4.4142933
1.258912 10.672203 4.4271679
1.3269405 10.67495 4.4400434
1.4014816 10.679052 4.4628959
1.4629974 10.680442 4.4657946
1.5245087 10.681931 4.468678
1.5860251 10.683322 4.4715781
1.6410253 10.683454 4.4644852
1.6960251 10.683584 4.4573936
1.7445123 10.682361 4.4403238
1.7995069 10.682491 4.4332247
1.8545116 10.682624 4.4261398
1.9029958 10.681498 4.4090557
1.9514776 10.680272 4.3919787
2.0064828 10.680404 4.3848948
2.0549664 10.679277 4.3678117
2.1034541 10.678053 4.3507428
2.151937 10.676928 4.3336587
2.2004249 10.675702 4.3165903
2.2489083 10.674575 4.2995071
2.2970312 10.673212 4.2818842
2.3390021 10.670729 4.2548242
2.3871243 10.669369 4.2372012
2.4290957 10.666885 4.2101412
2.471067 10.664402 4.1830807
2.5130382 10.661919 4.1560211
2.5550094 10.659436 4.1289606
2.6031275 10.658174 4.1113229
2.6450987 10.65569 4.0842628
2.6932213 10.654328 4.0666409
2.7351925 10.651846 4.0395803
2.7771637 10.649363 4.0125203
2.819135 10.646879 3.9854603
2.8611062 10.644396 3.9584002
2.9030774 10.641913 3.9313402
2.9388976 10.638309 3.8948417
2.9808683 10.635825 3.8677819
3.0228395 10.633342 3.8407218
3.0709624 10.63198 3.8230996
3.1067824 10.628376 3.7866013
3.1549048 10.627014 3.7689795
3.196876 10.624531 3.7419193
3.2388475 10.622047 3.714859
3.2746677 10.618443 3.6783609
3.3104918 10.614739 3.6418786
3.3524632 10.612256 3.6148183
3.3821318 10.60753 3.5688839
3.4241028 10.605047 3.5418239
3.4595621 10.601208 3.5047872
3.5015335 10.598724 3.4777269
3.543505 10.596241 3.4506667
3.5854759 10.593759 3.4236069
3.6274474 10.591275 3.3965466
3.6629021 10.587534 3.3594942
3.7048733 10.585051 3.3324342
3.7403324 10.58121 3.2953985
3.7757876 10.577469 3.258347
3.8112464 10.573628 3.2213099
3.8467011 10.569888 3.1842585
3.8756442 10.56479 3.1372306
3.9111028 10.56095 3.100194
3.9400411 10.555851 3.0531585
3.9689882 10.550754 3.0061376
4.0044436 10.547011 2.9690876
4.039897 10.543172 2.9320424
4.0688415 10.538174 2.8850064
4.0977893 10.533075 2.8379881
4.1332426 10.529234 2.8009424
4.1621857 10.524137 2.7539151
4.1911287 10.519038 2.706887
4.2330995 10.516555 2.6798272
4.2620425 10.511457 2.6327989
4.2844687 10.505101 2.5757794
4.3068991 10.498647 2.5187755
4.3358417 10.493548 2.4717474
4.3582678 10.487192 2.4147279
4.3806992 10.480737 2.3577242
4.4031253 10.47438 2.300705
4.4255557 10.467926 2.2437012
4.4479818 10.461571 2.1866808
4.4638958 10.453856 2.1196852
4.4732981 10.444787 2.0427134
4.4957247 10.438431 1.985693
4.5051274 10.42946 1.9087148
4.5275531 10.423004 1.8517032
4.5304384 10.412677 1.7647383
4.5528703 10.406321 1.7077279
4.5557561 10.395993 1.6207645
4.5781808 10.389537 1.5637519
4.587584 10.380566 1.486773
4.6034985 10.372854 1.4197772
4.6194072 10.36514 1.352773
4.6288109 10.356169 1.2757943
4.6447248 10.348456 1.2087986
4.6541214 10.339386 1.1318183
4.6700354 10.331673 1.0648229
4.6794391 10.322702 0.98784351
4.6823244 10.312374 0.9008801
4.6852102 10.302047 0.81391668
4.6946068 10.292975 0.73693609
4.6974936 10.282747 0.64996576
4.7003789 10.272418 0.56300211
4.6967473 10.260734 0.46605515
4.6800933 10.246533 0.34914017
4.6960073 10.23882 0.28214431
4.6793528 10.224519 0.16523671
4.6692114 10.211677 0.058298588
4.6590629 10.198704 -0.048639059
4.603322 10.176628 -0.22545433
4.5410657 10.153235 -0.41225743
4.3810916 10.11026 -0.74882507
4.3774614 10.098634 -0.84577727
-7.877799 10.339955 2.7123203
-7.6766405 10.373073 2.9288988
-7.5516119 10.389166 3.0289588
-7.4127464 10.408343 3.1501975
-7.2877183 10.424436 3.2502577
-7.1419253 10.445172 3.3820972
-7.0376668 10.456609 3.4503698
-6.9334025 10.468058 3.5186496
-6.822217 10.481055 3.5975232
-6.7525606 10.484763 3.6128364
-6.6690664 10.491567 3.6493278
-6.5994091 10.495275 3.6646409
-6.522831 10.500523 3.6905482
-6.4462528 10.505778 3.716455
-6.3835173 10.507939 3.7211747
-6.3138604 10.511648 3.7364879
-6.2580462 10.512261 3.7306147
-6.1607037 10.522161 3.788301
-6.0979738 10.524322 3.7930126
-6.04216 10.524934 3.7871392
-5.9794245 10.527094 3.7918587
-5.8959241 10.5339 3.8283587
-5.8262672 10.537598 3.843673
-5.7635322 10.539759 3.8483927
-5.7077179 10.540373 3.8425193
-5.6449823 10.542532 3.8472395
-5.575326 10.546241 3.8625526
-5.5125899 10.548401 3.8672724
-5.4429331 10.552111 3.8825853
-5.3802028 10.55427 3.8872974
-5.3036251 10.559527 3.9132035
-5.2408891 10.561687 3.9179235
-5.1919961 10.560753 3.9014568
-5.1431036 10.559817 3.8849897
-5.1011329 10.557334 3.8579297
-5.0522399 10.556399 3.8414631
-4.9964256 10.557011 3.8355899
-4.9336901 10.559173 3.8403096
-4.8432693 10.567514 3.887404
-4.7736177 10.571223 3.9027085
-4.7108822 10.573382 3.9074283
-4.6412249 10.577093 3.9227417
-4.5854111 10.577705 3.9168682
-4.5226755 10.579865 3.9215879
-4.4737825 10.578931 3.9051213
-4.4318113 10.576448 3.8780613
-4.3829188 10.575512 3.8615944
-4.32792 10.575624 3.8545032
-4.2664084 10.577033 3.8573928
-4.2114091 10.577155 3.8503017
-4.1498923 10.578565 3.853199
-4.0883813 10.579973 3.8560891
-4.0333815 10.580086 3.8489981
-3.9848938 10.578911 3.8319261
-3.929894 10.579022 3.8248353
-3.8879228 10.576539 3.7977753
-3.8394401 10.575353 3.780695
-3.7909522 10.574166 3.7636242
-3.7359529 10.57428 3.7565334
-3.6744416 10.575688 3.7594228
-3.6129251 10.577109 3.76232
-3.5448966 10.579845 3.7751961
-3.4833863 10.581235 3.7780874
-3.3958182 10.587854 3.8209138
-3.3277912 10.5905 3.8337967
-3.2662737 10.59199 3.836689
-3.2047634 10.593379 3.8395796
-3.1627922 10.590896 3.8125196
-3.0491681 10.602645 3.8952894
-2.9876509 10.604134 3.8981812
-2.9000845 10.610655 3.9410148
-2.8320558 10.613401 3.9538903
-2.7705398 10.614791 3.9567897
-2.7155399 10.614923 3.9496975
-2.6605406 10.615053 3.942605
-2.5990298 10.616445 3.9454961
-2.5440297 10.616575 3.9384038
-2.4760013 10.619322 3.9512792
-2.3884337 10.625941 3.9941058
-2.313889 10.629946 4.0169735
-2.245862 10.632593 4.0298557
-2.184351 10.633981 4.0327468
-2.1098053 10.638086 4.0556064
-2.0482945 10.639476 4.0584974
-1.9802673 10.642123 4.0713806
-1.9252675 10.642254 4.0642886
-1.8572392 10.645001 4.0771637
-1.7957286 10.646391 4.0800543
-1.747241 10.645165 4.0629859
-1.6987578 10.64404 4.0459023
-1.6502697 10.642814 4.0288339
-1.6017865 10.641687 4.0117497
-1.5402704 10.643078 4.0146494
-1.4787594 10.644466 4.0175405
-1.4107313 10.647212 4.0304155
-1.3427043 10.649859 4.0432982
-1.2746756 10.652609 4.0561743
-1.2066476 10.655354 4.0690498
-1.151648 10.655485 4.0619564
-1.1096768 10.653002 4.0348964
-1.0546782 10.653035 4.0278115
-0.99967825 10.653167 4.0207191
-0.93164974 10.655913 4.0335951
-0.86362803 10.658561 4.0464697
-0.78908229 10.662664 4.0693288
-0.7275719 10.664054 4.0722198
-0.66605532 10.665443 4.07512
-0.61105561 10.665575 4.068027
-0.54302859 10.668221 4.0809102
-0.48802885 10.668354 4.0738173
-0.42651796 10.669744 4.0767083
-0.36500615 10.671232 4.0795922
-0.30348986 10.672623 4.0824919
-0.2484901 10.672754 4.0753999
-0.18697947 10.674143 4.0782905
-0.12546343 10.675532 4.0811896
-0.063952744 10.676921 4.0840807
-0.0024349689 10.678411 4.0869732
0.059075594 10.679801 4.0898643
0.12710387 10.682548 4.1027393
0.18861443 10.683935 4.1056299
0.2501303 10.685326 4.10853
0.31815946 10.688073 4.1214051
0.37966955 10.689462 4.1242962
0.43466949 10.689593 4.1172042
0.49618542 10.690983 4.1201034
0.55769652 10.692373 4.1229944
0.61269605 10.692504 4.1159015
0.68072468 10.695251 4.1287775
0.7617805 10.700513 4.1616282
0.85586441 10.708391 4.2144465
0.95646065 10.717625 4.2772408
1.0375168 10.722886 4.310092
1.112057 10.72699 4.332943
1.1866014 10.730996 4.3558097
1.2546287 10.733643 4.3686929
1.3356853 10.739004 4.401536
1.4037125 10.741651 4.4144192
1.4652247 10.743139 4.4173021
1.5332515 10.745787 4.4301853
1.5882512 10.745918 4.4230928
1.6432511 10.74605 4.4159999
1.6982511 10.746181 4.4089079
1.7532493 10.746215 4.4018235
1.8017329 10.745088 4.3847389
1.8567324 10.74522 4.3776469
1.9117327 10.745352 4.370554
1.9602205 10.744127 4.3534865
2.0087025 10.742901 4.3364096
2.0571914 10.741775 4.319334
2.1121907 10.741907 4.3122411
2.1541619 10.739425 4.285181
2.2026443 10.738198 4.2681046
2.2511315 10.736972 4.2510357
2.2996156 10.735847 4.2339516
2.3415868 10.733364 4.206892
2.383558 10.730881 4.1798315
2.4320457 10.729655 4.1627631
2.4740169 10.727172 4.1357031
2.5159881 10.724689 4.1086431
2.5644712 10.723563 4.0915585
2.6064427 10.72108 4.0644984
2.6545651 10.719718 4.0468764
2.6965363 10.717235 4.0198164
2.7385077 10.714752 3.9927564
2.7804792 10.712269 3.9656961
2.8224502 10.709785 3.9386361
2.8644214 10.707302 3.911576
2.9002414 10.703698 3.8750777
2.9422128 10.701215 3.8480177
2.9841838 10.698731 3.8209577
3.026155 10.696248 3.7938976
3.0681264 10.693766 3.7668374
3.1100974 10.691282 3.7397773
3.1520686 10.688799 3.7127173
3.2001915 10.687437 3.6950951
3.2360113 10.683833 3.6585968
3.2714705 10.679993 3.6215608
3.3069255 10.676251 3.5845091
3.3423841 10.67241 3.5474725
3.3843551 10.669927 3.5204124
3.4263263 10.667444 3.4933524
3.4682975 10.664961 3.4662924
3.5102689 10.662477 3.4392321
3.5522399 10.659994 3.4121721
3.5942113 10.657512 3.3851118
3.6296668 10.653771 3.3480606
3.6651266 10.650031 3.311017
3.7005801 10.646189 3.2739725
3.7425516 10.643706 3.2469122
3.7780123 10.639966 3.2098691
3.8134661 10.636126 3.1728244
3.8424096 10.631127 3.1257887
3.8778691 10.627288 3.088753
3.9068112 10.622188 3.0417244
3.9422665 10.618447 3.0046732
3.9712086 10.613349 2.9576452
4.0066695 10.609609 2.9206018
4.0356121 10.604511 2.8735733
4.0710659 10.60067 2.8365297
4.1065259 10.59693 2.7994859
4.135469 10.591831 2.7524581
4.1709237 10.588092 2.7154055
4.2063832 10.584251 2.6783705
4.2353268 10.579251 2.6313348
4.2577572 10.572797 2.574331
4.2866993 10.567699 2.5273027
4.3091264 10.561343 2.4702833
4.3380694 10.556245 2.4232554
4.3605013 10.54989 2.3662441
4.3829269 10.543534 2.3092241
4.4053593 10.537177 2.2522132
4.4277849 10.530822 2.195194
4.4371881 10.521751 2.1182222
4.4531021 10.514139 2.0512187
4.469017 10.506425 1.9842234
4.4784203 10.497455 1.907244
4.4943357 10.489841 1.8402412
4.5037322 10.48077 1.7632616
4.5261641 10.474416 1.70625
4.5290508 10.464187 1.6192794
4.5449648 10.456474 1.5522833
4.5608802 10.44886 1.485281
4.570282 10.439792 1.408309
4.5927081 10.433434 1.351289
4.6086235 10.42582 1.284286
4.6180272 10.416851 1.2073069
4.627429 10.407781 1.1303358
4.636827 10.398809 1.0533478
4.6462302 10.38984 0.9763689
4.6491165 10.379612 0.88939857
4.6585202 10.370642 0.81241965
4.6744342 10.362927 0.74542332
4.6642928 10.350084 0.63848519
4.6671796 10.339855 0.55151415
4.6635489 10.32827 0.45455956
4.6534114 10.315328 0.34763575
4.6693268 10.307714 0.28063321
4.6656957 10.296128 0.18367815
4.6490421 10.281927 0.066763878
4.6323886 10.267728 -0.050151587
4.5701342 10.244524 -0.23696804
4.5143957 10.222579 -0.41379356
4.37397 10.183686 -0.72041726
4.3964014 10.17733 -0.77742863
-8.0293388 10.383935 2.5194328
-7.8351107 10.415327 2.7254226
-7.6685658 10.440556 2.8890367
-7.4743357 10.471949 3.0950263
-7.3769941 10.481778 3.1527181
-7.2727365 10.493155 3.2209949
-7.1200294 10.51531 3.3634291
-7.0088501 10.528226 3.4422996
-6.9115143 10.538056 3.4999833
-6.8141723 10.547897 3.5576744
-6.7376003 10.553102 3.5835762
-6.6541004 10.559867 3.6200788
-6.5844498 10.563536 3.6353869
-6.5078716 10.568751 3.6612961
-6.4312992 10.573968 3.6871972
-6.3547211 10.579185 3.7131066
-6.2989078 10.579778 3.7072346
-6.2084923 10.58808 3.7543235
-6.1249933 10.594834 3.7908268
-6.0691795 10.595427 3.7849548
-6.0064497 10.597569 3.7896681
-5.9506359 10.598161 3.7837958
-5.8602209 10.606452 3.8308849
-5.7974858 10.608594 3.8356066
-5.7347498 10.610755 3.8403265
-5.678936 10.611367 3.8344529
-5.6092801 10.614975 3.8497734
-5.539629 10.618684 3.8650784
-5.4768934 10.620794 3.869802
-5.4072366 10.624503 3.8851151
-5.3445072 10.626613 3.8898304
-5.2817726 10.628723 3.8945539
-5.2259583 10.629336 3.8886807
-5.1701441 10.629951 3.882807
-5.1281729 10.627467 3.8557467
-5.0792813 10.626482 3.8392839
-5.0303879 10.625596 3.8228135
-4.9745789 10.626208 3.8169312
-4.9187651 10.626822 3.811058
-4.8421874 10.632028 3.8369684
-4.7656145 10.637234 3.8628702
-4.6959591 10.640843 3.8781905
-4.6332231 10.643053 3.8829072
-4.570488 10.645164 3.8876307
-4.521596 10.644179 3.8711674
-4.4727025 10.643293 3.8546968
-4.4238162 10.642309 3.8382254
-4.3680019 10.642921 3.8323517
-4.3060818 10.644551 3.8358569
-4.2510815 10.644683 3.8287644
-4.1895704 10.646071 3.8316557
-4.1280546 10.647462 3.8345551
-4.0665441 10.648849 3.837446
-4.0115457 10.648883 3.8303609
-3.9565458 10.649014 3.8232679
-3.9080639 10.647788 3.8061914
-3.8660922 10.645305 3.7791314
-3.8176031 10.64418 3.7620559
-3.7756319 10.641698 3.7349958
-3.7206335 10.641728 3.727911
-3.6591227 10.643119 3.7308018
-3.5976119 10.644508 3.7336931
-3.5295835 10.647255 3.7465687
-3.4680674 10.648644 3.7494678
-3.3870173 10.653906 3.7823102
-3.325501 10.655295 3.7852097
-3.2639909 10.656684 3.7881
-3.2024744 10.658074 3.7909999
-3.147481 10.658106 3.783906
-3.0403683 10.668598 3.8566923
-2.9788575 10.669987 3.8595834
-2.8978019 10.675249 3.8924341
-2.8232586 10.679153 3.9153082
-2.7617478 10.680543 3.9181993
-2.706748 10.680676 3.9111071
-2.6452372 10.682065 3.9139981
-2.5902376 10.682197 3.9069059
-2.5287268 10.683584 3.909797
-2.4346437 10.691362 3.9626224
-2.3666153 10.694109 3.9754977
-2.2985883 10.696756 3.9883807
-2.2370777 10.698146 3.991272
-2.1690505 10.700792 4.0041547
-2.0879946 10.706055 4.0370054
-2.0330005 10.706187 4.0299044
-1.9649732 10.708834 4.0427871
-1.8969463 10.711479 4.0556698
-1.8354298 10.71287 4.0585699
-1.7804302 10.713001 4.051477
-1.731948 10.711776 4.0344005
-1.6834648 10.710649 4.0173159
-1.6349769 10.709424 4.000248
-1.5734661 10.710814 4.003139
-1.5119501 10.712204 4.0060382
-1.4439286 10.714849 4.0189123
-1.3759004 10.717596 4.0317874
-1.3013566 10.721502 4.0546627
-1.2528729 10.720376 4.0375786
-1.1978747 10.720407 4.0304933
-1.1493914 10.719281 4.0134091
-1.0943925 10.719313 4.0063243
-1.0393928 10.719445 3.9992325
-0.9648537 10.72345 4.0220904
-0.89031011 10.727355 4.0449657
-0.82228196 10.730102 4.0578403
-0.76077098 10.73149 4.0607319
-0.70577276 10.731524 4.0536466
-0.65077281 10.731654 4.0465541
-0.58926201 10.733043 4.0494452
-0.52774584 10.734433 4.0523448
-0.46623498 10.735822 4.0552359
-0.41123545 10.735954 4.0481434
-0.34972459 10.737343 4.0510349
-0.28820848 10.738733 4.0539336
-0.22669762 10.740122 4.0568252
-0.1651873 10.741511 4.0597157
-0.097159803 10.744159 4.0725989
-0.042159855 10.74429 4.0655065
0.025867164 10.746938 4.0783892
0.087377787 10.748326 4.0812802
0.15540487 10.750974 4.0941625
0.21692115 10.752362 4.0970626
0.28494936 10.75511 4.1099377
0.34645998 10.756499 4.1128292
0.4014588 10.756531 4.1057439
0.45645827 10.756662 4.0986509
0.51796943 10.758053 4.101542
0.56645691 10.756827 4.0844741
0.62796766 10.758217 4.0873656
0.68947822 10.759605 4.0902567
0.75099462 10.760996 4.0931549
0.83856267 10.767615 4.135983
0.9521848 10.779264 4.2187586
1.0267236 10.783268 4.2416172
1.1012628 10.787271 4.2644763
1.1758074 10.791178 4.2873516
1.2503462 10.795181 4.3102102
1.3248844 10.799085 4.333076
1.3994288 10.80309 4.3559437
1.4674506 10.805738 4.3688178
1.5289664 10.807127 4.3717165
1.5839666 10.807258 4.3646245
1.6389661 10.80739 4.357532
1.6939596 10.807422 4.3504386
1.7489591 10.807552 4.3433466
1.8039589 10.807686 4.3362546
1.8589578 10.807717 4.3291702
1.9074461 10.806592 4.3120933
1.9559289 10.805366 4.2950168
2.0109284 10.805498 4.2879248
2.059411 10.804272 4.2708478
2.1078978 10.803047 4.2537789
2.1563869 10.801921 4.2367029
2.2048693 10.800694 4.2196274
2.2533512 10.79947 4.2025499
2.2953222 10.796987 4.1754899
2.3438115 10.795862 4.1584139
2.385783 10.793379 4.1313534
2.4277542 10.790895 4.1042938
2.4762366 10.789669 4.0872173
2.524724 10.788444 4.0701489
2.5666955 10.78596 4.0430889
2.6086667 10.783477 4.0160289
2.6571498 10.782351 3.998944
2.699121 10.779868 3.971884
2.7410922 10.777385 3.9448237
2.7830634 10.774901 3.9177637
2.8185227 10.771061 3.8807282
2.8539777 10.767322 3.8436766
2.8894379 10.763581 3.806632
2.9314089 10.761098 3.7795722
2.9798913 10.759871 3.7624962
3.0218627 10.757388 3.735436
3.0638342 10.754906 3.7083757
3.1058052 10.752422 3.6813159
3.1477764 10.749939 3.6542556
3.196264 10.748713 3.637187
3.2317193 10.744973 3.6001353
3.267179 10.741233 3.5630913
3.3026323 10.737391 3.526047
3.3446033 10.734908 3.4989872
3.3930924 10.733784 3.4819112
3.4350638 10.7313 3.4548509
3.4770353 10.728817 3.4277906
3.5190067 10.726334 3.4007304
3.5544596 10.722493 3.3636866
3.5899205 10.718751 3.3266432
3.6318917 10.716268 3.299583
3.6738629 10.713784 3.2725229
3.702805 10.708687 3.2254946
3.7447765 10.706204 3.1984344
3.780232 10.702463 3.1613829
3.80918 10.697367 3.1143641
3.8446348 10.693624 3.0773118
3.8800948 10.689884 3.0402679
3.9090381 10.684787 2.9932401
3.9379807 10.679688 2.9462125
3.9734349 10.675945 2.9091606
4.002378 10.670849 2.8621323
4.0378385 10.667109 2.8250885
4.073298 10.663368 2.7880456
4.1022415 10.658269 2.7410178
4.1376963 10.654529 2.7039659
4.1731553 10.650689 2.666929
4.2086101 10.646948 2.6298785
4.2310424 10.640592 2.5728672
4.2599845 10.635493 2.5258389
4.2889285 10.630496 2.4788036
4.3113604 10.624141 2.421792
4.3403025 10.619041 2.3747637
4.3562188 10.611428 2.3077612
4.3786502 10.605072 2.2507501
4.4010763 10.598717 2.1937311
4.41048 10.589746 2.1167517
4.4263945 10.582133 2.0497479
4.4423103 10.574521 1.9827459
4.4582243 10.566807 1.9157495
4.4741459 10.559194 1.8487554
4.4770317 10.548965 1.7617841
4.4994583 10.54261 1.7047646
4.5088615 10.53364 1.6277862
4.5182662 10.524768 1.5507996
4.5341802 10.517055 1.4838035
4.5435843 10.508184 1.4068174
4.5594993 10.500472 1.3398216
4.5819311 10.494116 1.2828104
4.5848179 10.483889 1.1958392
4.6007328 10.476274 1.1288369
4.6036201 10.466047 1.0418658
4.6130228 10.457076 0.96488738
4.6289382 10.449463 0.89788342
4.6318254 10.439234 0.81091285
4.6412287 10.430264 0.73393393
4.6441154 10.420035 0.64696312
4.6470022 10.409807 0.55999231
4.6303492 10.395706 0.44306993
4.6332412 10.38548 0.35610795
4.6491566 10.377867 0.28910542
4.6390152 10.365022 0.18216634
4.641902 10.354794 0.095195532
4.60571 10.336821 -0.051677465
4.5825415 10.321464 -0.17859101
4.4030447 10.275125 -0.54513025
4.3798761 10.259766 -0.67204404
4.3762503 10.24818 -0.76899076
-7.9935651 10.457891 2.5219402
-7.8131857 10.486046 2.7067451
-7.6397271 10.512662 2.8809564
-7.4801054 10.536224 3.0339859
-7.3135691 10.561314 3.1976018
-7.2577553 10.561895 3.1917305
-7.1119761 10.582382 3.3235719
-7.0007977 10.595208 3.4024491
-6.8965473 10.606505 3.4707232
-6.7922902 10.617805 3.5390058
-6.7226334 10.621512 3.5543194
-6.6391397 10.628217 3.5908179
-6.5625687 10.633324 3.6167276
-6.4929118 10.637033 3.6320403
-6.4094181 10.643736 3.6685393
-6.3397684 10.647346 3.6838517
-6.270113 10.650953 3.6991725
-6.1658611 10.662251 3.767446
-6.1031265 10.664361 3.7721701
-6.0403967 10.666472 3.7768853
-5.9845829 10.667085 3.7710116
-5.9080048 10.672292 3.7969217
-5.8452754 10.674402 3.8016367
-5.77562 10.67801 3.8169575
-5.7128906 10.680122 3.8216724
-5.6501551 10.682233 3.8263965
-5.5805044 10.68594 3.841701
-5.5177689 10.688051 3.8464246
-5.4481187 10.69166 3.8617365
-5.3853836 10.69377 3.8664601
-5.3295698 10.694383 3.8605869
-5.2668405 10.696493 3.8653021
-5.2110271 10.697006 3.859436
-5.1552134 10.69762 3.8535624
-5.1063271 10.696633 3.837091
-5.0643554 10.69415 3.8100307
-5.0154619 10.693266 3.7935605
-4.9596491 10.693778 3.787694
-4.9038353 10.694391 3.7818208
-4.8341846 10.698 3.7971334
-4.7645273 10.701708 3.8124466
-4.6948776 10.705316 3.8277588
-4.6252217 10.708926 3.8430791
-4.5694132 10.709538 3.8371975
-4.5135994 10.71015 3.8313236
-4.4647069 10.709167 3.8148608
-4.4158134 10.70828 3.7983904
-4.3530846 10.71039 3.8031056
-4.29076 10.71216 3.8072231
-4.2227335 10.714808 3.8201056
-4.1612167 10.716198 3.8230052
-4.1062174 10.716329 3.8159122
-4.0447078 10.717618 3.8188105
-3.9897132 10.71775 3.8117104
-3.9412258 10.716524 3.7946413
-3.8992546 10.714041 3.7675812
-3.850771 10.712914 3.7504976
-3.8022835 10.71169 3.7334294
-3.7603123 10.709208 3.7063692
-3.7053137 10.709239 3.6992841
-3.6438031 10.710629 3.7021751
-3.5822921 10.712016 3.7050662
-3.5207815 10.713407 3.7079573
-3.4527545 10.716053 3.7208397
-3.3847275 10.718699 3.7337224
-3.3167 10.721348 3.7466054
-3.2551908 10.722638 3.7495036
-3.1936798 10.724027 3.7523947
-3.1191363 10.727931 3.775269
-3.0380859 10.733192 3.808111
-2.9765754 10.734582 3.8110023
-2.8890045 10.741003 3.853852
-2.814465 10.745006 3.8767111
-2.7529554 10.746296 3.8796096
-2.6979561 10.746427 3.8725166
-2.6364453 10.747817 3.8754079
-2.5814464 10.747849 3.8683228
-2.5069082 10.751752 3.8911896
-2.419342 10.758272 3.9340224
-2.3578258 10.759662 3.9369221
-2.289804 10.762309 3.9497969
-2.2282877 10.763699 3.9526961
-2.1407213 10.770217 3.9955301
-2.0792117 10.771508 3.9984281
-2.0177009 10.772896 4.0013194
-1.9496739 10.775543 4.0142021
-1.8816465 10.778191 4.0270853
-1.8201357 10.779579 4.0299764
-1.7716534 10.778355 4.0128999
-1.7231661 10.777129 3.9958308
-1.6681664 10.77726 3.988739
-1.6131678 10.777292 3.9816532
-1.545146 10.77994 3.9945281
-1.4836301 10.781329 3.9974272
-1.4156084 10.783975 4.0103016
-1.3475809 10.786623 4.0231848
-1.2925811 10.786755 4.0160923
-1.244099 10.785528 3.9990156
-1.1956114 10.784303 3.9819472
-1.1341007 10.785691 3.9848375
-1.0791022 10.785725 3.9777532
-0.99804652 10.790986 4.0106034
-0.92350835 10.79489 4.0334697
-0.85548651 10.797538 4.0463443
-0.80048168 10.797669 4.0392599
-0.74548835 10.797702 4.0321665
-0.69048858 10.797832 4.0250745
-0.62897778 10.799222 4.0279655
-0.5674628 10.800512 4.0308723
-0.49943557 10.803159 4.0437546
-0.44444156 10.80329 4.036654
-0.38292497 10.804679 4.0395536
-0.32141554 10.805969 4.0424523
-0.25990492 10.807359 4.0453434
-0.1918779 10.810006 4.0582256
-0.12385088 10.812653 4.0711079
-0.062340021 10.814042 4.0739994
-0.00082939863 10.815432 4.07689
0.067198038 10.818078 4.0897732
0.12870759 10.819368 4.0926719
0.19673455 10.822014 4.1055546
0.25824517 10.823404 4.1084452
0.31324512 10.823535 4.1013527
0.3682434 10.823568 4.0942678
0.42324328 10.8237 4.0871754
0.47824216 10.823731 4.0800915
0.52672404 10.822507 4.063014
0.58172405 10.822638 4.0559216
0.6367228 10.82267 4.0488367
0.69172239 10.822802 4.0417438
0.74672115 10.822834 4.0346594
0.80823171 10.824224 4.03755
0.91533744 10.834614 4.1103354
1.0029049 10.841133 4.1531696
1.0839592 10.846296 4.1860271
1.1519859 10.848943 4.1989093
1.2330363 10.854204 4.2317519
1.3010635 10.856853 4.2446346
1.3690909 10.8595 4.2575178
1.4371172 10.862145 4.2704
1.5051453 10.864793 4.2832837
1.5666543 10.866082 4.2861814
1.6151375 10.864956 4.2690964
1.6766467 10.866246 4.2719955
1.7381637 10.867636 4.2748947
1.7931631 10.867767 4.2678027
1.8481565 10.867798 4.2607093
1.8966439 10.866574 4.2436409
1.9451276 10.865448 4.2265568
2.0066371 10.866736 4.229455
2.0551257 10.865611 4.212379
2.1036139 10.864387 4.1953115
2.1586063 10.864419 4.1882176
2.2070951 10.863292 4.1711421
2.2555771 10.862065 4.1540651
2.2910376 10.858326 4.1170216
2.3395195 10.8571 4.0999446
2.3880084 10.855876 4.0828772
2.4299796 10.853393 4.0558171
2.4784613 10.852167 4.0387402
2.5269444 10.851041 4.0216551
2.5689158 10.848557 3.9945951
2.6108868 10.846074 3.967535
2.652858 10.843591 3.940475
2.7013464 10.842365 3.9234076
2.7368009 10.838625 3.8863547
2.77226 10.834785 3.8493192
2.8012033 10.829784 3.8022835
2.8431747 10.827302 3.7752233
2.8786354 10.823562 3.7381802
2.9206064 10.821078 3.7111201
2.9756057 10.821112 3.7040358
3.0175772 10.818629 3.6769755
3.0660586 10.817403 3.6598985
3.1080298 10.814919 3.6328385
3.1500013 10.812436 3.6057782
3.1919725 10.809954 3.5787179
3.2274332 10.806213 3.5416749
3.2694044 10.80373 3.5146148
3.3113759 10.801247 3.4875546
3.3533468 10.798763 3.4604945
3.395318 10.796281 3.4334345
3.4372892 10.793797 3.4063745
3.4792607 10.791314 3.3793142
3.5212317 10.788831 3.3522542
3.5566857 10.785089 3.3152013
3.5986571 10.782605 3.2881413
3.6406281 10.780122 3.2610812
3.6760883 10.776381 3.2240381
3.7050312 10.771284 3.1770098
3.7470026 10.768801 3.1499498
3.7759469 10.763803 3.1029143
3.8114004 10.759961 3.0658698
3.8468611 10.756222 3.028827
3.8758049 10.751224 2.9817917
3.9047472 10.746124 2.9347637
3.9402072 10.742384 2.8977206
3.975668 10.738644 2.8606768
4.004611 10.733546 2.8136487
4.0400658 10.729805 2.776597
4.0755258 10.726065 2.7395537
4.1109796 10.722223 2.7025084
4.14644 10.718484 2.6654654
4.1818948 10.714742 2.6284137
4.2043262 10.708386 2.5714025
4.2332764 10.703388 2.5243762
4.2557015 10.697033 2.4673562
4.291162 10.693292 2.4303124
4.3135886 10.686936 2.3732924
4.3360205 10.68058 2.3162811
4.3519359 10.672968 2.249279
4.3743682 10.666612 2.1922677
4.3902826 10.658998 2.1252644
4.4062033 10.651386 2.058269
4.4156027 10.642515 1.9812753
4.4315238 10.634902 1.9142804
4.4474392 10.627289 1.8472774
4.4568434 10.618418 1.7702911
4.4727583 10.610805 1.7032878
4.4886742 10.60319 1.6362851
4.4915662 10.592963 1.5493226
4.5074816 10.58535 1.4823203
4.5168858 10.576479 1.4053335
4.5393124 10.570124 1.3483138
4.5487165 10.561253 1.2713273
4.5581212 10.552382 1.1943407
4.5675249 10.543411 1.117362
4.5834394 10.535799 1.0503588
4.5863333 10.525671 0.96338868
4.5957322 10.516799 0.88639402
4.6051354 10.507829 0.80941582
4.6080284 10.497702 0.7224462
4.6239443 10.490087 0.65544271
4.6138091 10.477344 0.54850507
4.6101794 10.465858 0.45154238
4.6130714 10.45563 0.36457992
4.6224766 10.44676 0.28759384
4.6188526 10.435274 0.1906395
4.6087112 10.42253 0.083693743
4.5855489 10.407271 -0.043218136
4.5558691 10.390656 -0.18011594
4.3698654 10.34326 -0.55665302
4.3532133 10.329259 -0.67358255
4.2062879 10.289608 -0.99021769
-7.9577913 10.531825 2.5244493
-7.7635822 10.562836 2.730442
-7.5970464 10.587816 2.8940656
-7.4512739 10.6082 3.0259061
-7.2916603 10.631582 3.1789408
-7.2496891 10.629099 3.1518803
-7.0831585 10.654078 3.315496
-6.9858241 10.663778 3.3731892
-6.8884945 10.673478 3.4308739
-6.7842445 10.684675 3.4991553
-6.7007513 10.69138 3.5356541
-6.6241803 10.696486 3.5615635
-6.5545301 10.700095 3.5768754
-6.4641161 10.708298 3.623971
-6.3944654 10.711905 3.6392829
-6.3248096 10.715515 3.6546035
-6.2274809 10.725215 3.7122884
-6.1439877 10.731919 3.7487869
-6.074337 10.735527 3.7640996
-6.0185242 10.73604 3.7582335
-5.9557943 10.738151 3.7629485
-5.8861389 10.741759 3.7782688
-5.8234091 10.74387 3.7829843
-5.7537594 10.747478 3.7982965
-5.6979456 10.747992 3.7924302
-5.6213741 10.753198 3.818332
-5.5586443 10.755308 3.8230476
-5.4959106 10.757318 3.8277781
-5.4262605 10.760927 3.8430901
-5.3704519 10.761539 3.837208
-5.3077168 10.76365 3.8419321
-5.2519093 10.764163 3.8360574
-5.1960955 10.764775 3.8301842
-5.1472034 10.76379 3.8137212
-5.0913906 10.764303 3.8078547
-5.0494189 10.76182 3.7807946
-5.0005312 10.760934 3.7643163
-4.9447184 10.761448 3.7584498
-4.8958316 10.760462 3.7419784
-4.8261747 10.76417 3.7572916
-4.7565241 10.767779 3.7726035
-4.6937962 10.76979 3.7773263
-4.6241407 10.773399 3.7926466
-4.5752468 10.772513 3.7761762
-4.5194392 10.773025 3.7703018
-4.4636259 10.773639 3.7644281
-4.4078178 10.774151 3.758554
-4.3450832 10.776262 3.7632775
-4.2624054 10.782386 3.7985649
-4.2008948 10.783774 3.8014557
-4.1393852 10.785064 3.804354
-4.0778689 10.786453 3.8072534
-4.0228758 10.786484 3.8001604
-3.9743881 10.78526 3.7830915
-3.9259048 10.784134 3.7660079
-3.8774171 10.782907 3.7489395
-3.8354459 10.780424 3.7218795
-3.7869639 10.7792 3.704802
-3.7384815 10.777973 3.6877255
-3.6834829 10.778007 3.6806407
-3.6284831 10.778138 3.6735485
-3.5734844 10.77817 3.6664634
-3.5054574 10.780817 3.6793461
-3.4439478 10.782106 3.6822443
-3.382437 10.783495 3.6851358
-3.307899 10.787399 3.7080014
-3.2463894 10.788689 3.7109001
-3.1848731 10.790078 3.713799
-3.1103354 10.793983 3.7366655
-3.0292864 10.799145 3.7695148
-2.9677765 10.800434 3.7724133
-2.8867221 10.805596 3.8052714
-2.8056731 10.810759 3.8381207
-2.7441623 10.812147 3.841012
-2.6891639 10.812181 3.8339262
-2.6276531 10.813569 3.8368175
-2.5596271 10.816115 3.8497078
-2.4850891 10.820021 3.8725736
-2.4105508 10.823925 3.8954401
-2.34904 10.825315 3.8983312
-2.2810144 10.827862 3.9112213
-2.2064764 10.831766 3.934087
-2.1254215 10.836928 3.9669452
-2.063911 10.838318 3.969836
-2.0024016 10.839607 3.9727345
-1.9278632 10.843512 3.9956005
-1.8663526 10.8449 3.9984918
-1.811354 10.844934 3.9914064
-1.7563543 10.845064 3.9843142
-1.7078719 10.843839 3.9672377
-1.6463573 10.845128 3.9701438
-1.5848464 10.846519 3.9730349
-1.5298476 10.846549 3.9659505
-1.4553094 10.850453 3.9888165
-1.3938 10.851744 3.9917152
-1.3388003 10.851875 3.9846222
-1.2903181 10.850651 3.9675455
-1.2353196 10.850682 3.9604607
-1.1803197 10.850814 3.9533682
-1.1057817 10.854717 3.9762342
-1.031245 10.858523 3.9991076
-0.95019466 10.863784 4.0319495
-0.89519578 10.863816 4.0248652
-0.84019721 10.863849 4.0177803
-0.78519744 10.86398 4.0106883
-0.72368801 10.86527 4.013586
-0.65566099 10.867917 4.0264678
-0.59415138 10.869205 4.0293665
-0.52612448 10.871854 4.0422492
-0.47113121 10.871886 4.0351562
-0.4161315 10.872016 4.0280643
-0.34810495 10.874563 4.0409546
-0.28008389 10.877211 4.0538282
-0.20554525 10.881115 4.076695
-0.14402944 10.882504 4.0795941
-0.082520008 10.883794 4.0824924
-0.021009147 10.885183 4.0853834
0.040500283 10.886473 4.0882816
0.1085273 10.889119 4.1011643
0.17003727 10.890409 4.104063
0.23154742 10.891799 4.1069536
0.28654617 10.89183 4.0998688
0.33503425 10.890605 4.0828009
0.39003384 10.890737 4.0757079
0.4385162 10.889511 4.0586314
0.48699868 10.888286 4.0415549
0.53548563 10.887061 4.0244865
0.59048045 10.887192 4.0173855
0.63896805 10.885966 4.0003176
0.70047754 10.887256 4.0032158
0.75547701 10.887388 3.9961228
0.81047571 10.88742 3.989038
0.87198514 10.888709 3.9919367
0.94652325 10.892614 4.0148029
1.0275722 10.897775 4.0476522
1.1346824 10.908068 4.1204529
1.22876 10.915845 4.1732702
1.2967868 10.918391 4.186161
1.3648076 10.921038 4.1990347
1.432835 10.923685 4.2119174
1.4943447 10.924975 4.2148151
1.5558558 10.926363 4.2177067
1.6173704 10.927653 4.220613
1.6723646 10.927786 4.2135129
1.7273633 10.927816 4.2064285
1.7823622 10.92785 4.1993427
1.8373616 10.927981 4.1922498
1.885844 10.926755 4.1751738
1.9408422 10.926788 4.168088
1.9958428 10.926919 4.1609969
2.0443244 10.925694 4.1439195
2.0993235 10.925726 4.1368351
2.1543217 10.925757 4.1297503
2.2028055 10.924632 4.1126661
2.2447765 10.922149 4.0856061
2.2932637 10.920923 4.0685368
2.3417461 10.919698 4.0514603
2.3837173 10.917214 4.0244007
2.4322054 10.915989 4.0073318
2.4806874 10.914763 3.9902549
2.5226588 10.91228 3.9631948
2.56463 10.909797 3.9361348
2.6066012 10.907313 3.9090745
2.6420617 10.903574 3.8720315
2.6840329 10.901091 3.8449712
2.7064602 10.894835 3.7879448
2.741919 10.890993 3.7509084
2.7838902 10.888511 3.7238483
2.8323741 10.887385 3.7067642
2.880861 10.886159 3.6896951
2.9293432 10.884933 3.6726191
2.9843423 10.884965 3.6655335
3.0263138 10.882483 3.6384733
3.0682847 10.879999 3.6114135
3.110256 10.877516 3.5843532
3.1522274 10.875032 3.5572929
3.2007098 10.873808 3.5402169
3.2361698 10.870067 3.5031729
3.2781413 10.867583 3.4761126
3.3266232 10.866358 3.4590368
3.3620832 10.862617 3.4219928
3.4040546 10.860134 3.3949325
3.4460261 10.857651 3.3678722
3.4879975 10.855167 3.340812
3.5299685 10.852685 3.3137522
3.5654292 10.848945 3.2767088
3.6074004 10.846461 3.2496486
3.6428547 10.84272 3.2125969
3.6717987 10.837722 3.1655624
3.7072577 10.833881 3.1285257
3.7427182 10.830142 3.0914819
3.7781732 10.8264 3.054431
3.8136332 10.822659 3.0173867
3.8425777 10.817661 2.9703517
3.8780313 10.813821 2.9333065
3.9134908 10.810081 2.8962624
3.942435 10.80508 2.8492284
3.977895 10.801341 2.8121841
4.0133491 10.797501 2.7751393
4.0422974 10.792502 2.7281125
4.0777535 10.78876 2.691062
4.1132135 10.785022 2.6540177
4.1486683 10.781281 2.616966
4.1776161 10.776181 2.5699463
4.2065606 10.771184 2.5229113
4.228992 10.764828 2.4658999
4.257936 10.759831 2.4188647
4.28688 10.754831 2.3718295
4.3093119 10.748476 2.3148186
4.3252273 10.740862 2.2478147
4.3476596 10.734608 2.1907959
4.363575 10.726995 2.1237938
4.3794971 10.719481 2.0567908
4.388896 10.710608 1.9797974
4.4113278 10.704254 1.922786
4.4207325 10.695383 1.8457994
4.4301367 10.686513 1.7688131
4.4460535 10.678998 1.7018027
4.4619741 10.671387 1.6348078
4.4713783 10.662516 1.5578218
4.4872937 10.654902 1.4908192
4.4901876 10.644773 1.4038494
4.5126143 10.638519 1.3468218
4.5220251 10.629648 1.2698443
4.531424 10.620776 1.1928494
4.5408287 10.611906 1.1158636
4.5567498 10.604391 1.0488613
4.5596371 10.594165 0.96189022
4.5690422 10.585393 0.88489652
4.5784469 10.576522 0.80791044
4.5813403 10.566394 0.72094083
4.590745 10.557525 0.64395332
4.5871224 10.546138 0.54699326
4.583498 10.534653 0.45003891
4.5929017 10.525782 0.37305212
4.5957899 10.515653 0.2860744
4.5856562 10.503011 0.1791296
4.5755224 10.490367 0.072184801
4.5653872 10.477623 -0.034753323
4.5291977 10.459849 -0.18164086
4.2520089 10.394949 -0.69800282
4.2158222 10.377075 -0.84487486
4.2122002 10.365688 -0.94183612
4.2150874 10.35556 -1.0288143
-7.9289436 10.604232 2.516355
-7.748579 10.632006 2.7011714
-7.5820498 10.656886 2.8647943
-7.3601651 10.693748 3.1131768
-7.2766781 10.700352 3.1496742
-7.2208643 10.700964 3.1438007
-7.0681777 10.722749 3.2862372
-6.9777708 10.73085 3.3333321
-6.8804426 10.740449 3.3910236
-6.7761922 10.751648 3.4593055
-6.6927052 10.758253 3.4958029
-6.6230555 10.76186 3.5111151
-6.5326481 10.769963 3.5582097
-6.4491558 10.776567 3.5947163
-6.3864274 10.778578 3.5994391
-6.2821779 10.789777 3.6677201
-6.1986856 10.79638 3.7042263
-6.1290355 10.799988 3.7195385
-6.0593853 10.803596 3.7348509
-6.0035777 10.804111 3.7289762
-5.9339271 10.807718 3.744288
-5.8642778 10.811226 3.7596078
-5.801549 10.813337 3.764323
-5.7457356 10.813849 3.7584567
-5.6760855 10.817459 3.7737689
-5.6064358 10.821067 3.7890811
-5.5437069 10.823077 3.7938039
-5.4740562 10.826687 3.8091159
-5.4182434 10.827198 3.8032496
-5.3555145 10.829309 3.807965
-5.2997065 10.829821 3.8020906
-5.2438922 10.830434 3.796217
-5.1880846 10.830948 3.7903428
-5.1391931 10.829961 3.7738795
-5.0833788 10.830574 3.7680056
-5.0344868 10.82959 3.7515426
-4.9856 10.828604 3.7350717
-4.936708 10.827618 3.7186084
-4.887816 10.826633 3.7021451
-4.8181658 10.830241 3.7174573
-4.7554379 10.832253 3.7221797
-4.692708 10.834364 3.7268949
-4.6299782 10.836473 3.7316103
-4.5741653 10.836987 3.7257442
-4.5183582 10.837499 3.7198696
-4.4556236 10.83961 3.7245929
-4.3928947 10.841619 3.7293158
-4.3163242 10.846726 3.7552245
-4.2405672 10.851352 3.7799153
-4.1790571 10.852642 3.7828135
-4.1175466 10.854031 3.7857041
-4.0625477 10.854063 3.7786188
-4.0075493 10.854095 3.7715342
-3.9590671 10.852869 3.7544575
-3.9105794 10.851644 3.7373896
-3.8620973 10.850418 3.7203124
-3.8201263 10.847935 3.6932526
-3.7716441 10.846709 3.6761754
-3.723156 10.845485 3.6591077
-3.6746731 10.844357 3.6420231
-3.6261907 10.843132 3.6249461
-3.5581648 10.845679 3.6378369
-3.5031657 10.845711 3.6307516
-3.4416566 10.847 3.6336496
-3.3736348 10.849648 3.6465244
-3.3056092 10.852196 3.6594143
-3.2375875 10.85484 3.6722884
-3.1760721 10.856131 3.6751957
-3.0950232 10.861293 3.7080448
-3.0269973 10.863841 3.7209353
-2.9589767 10.866388 3.7338166
-2.8779278 10.871549 3.7666659
-2.803391 10.875353 3.7895396
-2.7418745 10.876743 3.7924392
-2.6803648 10.878033 3.7953379
-2.6253722 10.878064 3.7882438
-2.5443172 10.883227 3.8211019
-2.4762967 10.885773 3.8339839
-2.4147875 10.887063 3.8368821
-2.3467605 10.889709 3.8497646
-2.2852509 10.891 3.852663
-2.1846635 10.899933 3.9154708
-2.1166375 10.902481 3.9283609
-2.0551267 10.903871 3.931252
-1.9871008 10.906417 3.9441421
-1.9190803 10.908964 3.9570241
-1.8510531 10.911612 3.9699066
-1.8025711 10.910385 3.9528296
-1.7475723 10.910418 3.9457448
-1.6925735 10.910449 3.9386601
-1.6310629 10.911839 3.9415507
-1.5630425 10.914386 3.9544322
-1.5015275 10.915676 3.9573393
-1.4335055 10.918322 3.9702139
-1.3850182 10.917096 3.953145
-1.3365357 10.915872 3.936069
-1.2815375 10.915903 3.9289832
-1.2265388 10.915936 3.9218988
-1.1520009 10.919839 3.9447644
-1.064442 10.92616 3.9876046
-0.98990393 10.930064 4.0104709
-0.93490487 10.930095 4.0033865
-0.87339544 10.931384 4.0062847
-0.81839693 10.931417 3.9991996
-0.75688595 10.932806 4.0020909
-0.69537675 10.934096 4.0049887
-0.62083864 10.938001 4.0278549
-0.55932927 10.939289 4.0307531
-0.49781951 10.940579 4.0336514
-0.43630487 10.941868 4.0365577
-0.37479395 10.943257 4.0394492
-0.30025727 10.947062 4.0623221
-0.23223525 10.94971 4.0751967
-0.17072576 10.950998 4.0780954
-0.10921639 10.952289 4.0809932
-0.047706902 10.953577 4.0838919
0.013809443 10.954967 4.0867915
0.081830025 10.957514 4.0996733
0.14333999 10.958803 4.102572
0.19833946 10.958934 4.09548
0.25333816 10.958968 4.0883942
0.3083365 10.959001 4.0813088
0.3503077 10.956517 4.0542488
0.39879006 10.955292 4.0371723
0.44727731 10.954064 4.0201039
0.49575967 10.952839 4.0030274
0.54424214 10.951613 3.98595
0.59272969 10.950389 3.9688821
0.64772928 10.95052 3.9617891
0.70272279 10.950551 3.9546967
0.76423216 10.951841 3.9575942
0.81923091 10.951874 3.9505093
0.86771291 10.950647 3.9334326
0.93573976 10.953296 3.9463148
0.99073875 10.953326 3.9392304
1.0848149 10.961003 3.9920554
1.191919 10.971196 4.0648546
1.2925065 10.98013 4.1276627
1.3605316 10.982679 4.1405525
1.4285529 10.985225 4.1534348
1.4900634 10.986613 4.1563258
1.5515782 10.987904 4.1592321
1.6065716 10.987935 4.1521392
1.6615704 10.987967 4.1450539
1.7165699 10.988098 4.1379619
1.7715684 10.988131 4.1308761
1.8200506 10.986906 4.1138
1.8815607 10.988194 4.1166983
1.9300482 10.986969 4.0996304
1.9850413 10.987001 4.0925369
2.0400407 10.987132 4.085444
2.0885289 10.985908 4.0683761
2.1370106 10.984682 4.0512986
2.1920094 10.984714 4.0442142
2.2404914 10.983488 4.0271378
2.2889788 10.982263 4.0100684
2.337461 10.981037 3.9929914
2.3794322 10.978554 3.9659314
2.4279146 10.977327 3.9488554
2.4698858 10.974845 3.9217951
2.518374 10.97362 3.9047265
2.5538282 10.969878 3.8676748
2.5892882 10.966138 3.8306308
2.611722 10.959883 3.7736135
2.647177 10.956141 3.7365611
2.6956644 10.954916 3.7194932
2.7376356 10.952433 3.6924331
2.792634 10.952465 3.6853471
2.8411162 10.95124 3.6682701
2.8961151 10.951272 3.6611857
2.9445982 10.950146 3.6441016
2.9865696 10.947663 3.6170413
3.0350571 10.946438 3.599973
3.0770283 10.943954 3.5729129
3.1255107 10.942728 3.5558362
3.1674819 10.940246 3.5287759
3.2094531 10.937762 3.5017159
3.2514243 10.935279 3.4746559
3.293396 10.932796 3.4475956
3.3353667 10.930312 3.4205356
3.3773379 10.92783 3.3934755
3.4193091 10.925346 3.3664155
3.4547696 10.921606 3.3293717
3.4967406 10.919123 3.3023117
3.538712 10.91664 3.2752514
3.574167 10.912899 3.2381997
3.6096261 10.909059 3.2011638
3.6385691 10.904059 3.1541281
3.6740298 10.900319 3.1170847
3.7094851 10.896578 3.0800335
3.7384293 10.89158 3.0329981
3.7804003 10.889096 3.0059381
3.8158605 10.885357 2.9688938
3.8448043 10.880357 2.921859
3.8802631 10.876517 2.8848226
3.9092069 10.871519 2.8377879
3.9446678 10.867778 2.8007445
3.9801226 10.864038 2.7636929
4.0155826 10.860297 2.7266488
4.0510383 10.856557 2.6895974
4.079987 10.851558 2.6425695
4.1154423 10.847817 2.6055188
4.1509023 10.844076 2.5684752
4.1733336 10.837722 2.5114636
4.2022781 10.832722 2.4644287
4.22471 10.826468 2.4074097
4.2601657 10.822726 2.3703582
4.2825975 10.816371 2.3133469
4.2985191 10.808859 2.2463439
4.314436 10.801344 2.1793346
4.3368678 10.794989 2.1223233
4.3527899 10.787476 2.0553215
4.3621945 10.778605 1.9783349
4.3781104 10.771091 1.9113252
4.394033 10.763578 1.8443227
4.4164591 10.757222 1.7873027
4.4193535 10.747194 1.7003253
4.4352689 10.73958 1.633323
4.4446797 10.730811 1.5563376
4.4540844 10.72194 1.4793515
4.4700007 10.714427 1.4123411
4.4794064 10.705653 1.3353481
4.495327 10.698042 1.268353
4.4982162 10.688013 1.1813672
4.5076203 10.679143 1.1043806
4.5170269 10.670371 1.0273871
4.5264359 10.661502 0.95040894
4.5358419 10.65273 0.87341571
4.5452461 10.64386 0.79642916
4.5546513 10.635088 0.71943569
4.5575399 10.62496 0.63245797
4.5539227 10.613575 0.53550482
4.5568113 10.603546 0.44851899
4.5597048 10.593418 0.36154938
4.5691104 10.584645 0.28455567
4.5459499 10.569489 0.15763617
4.5488434 10.559361 0.070666075
4.532198 10.54546 -0.046261549
4.5025201 10.529043 -0.18317342
4.2383742 10.467055 -0.6795733
4.1956744 10.448125 -0.83645177
4.2115955 10.440512 -0.90344596
4.1623793 10.420322 -1.0703168
-8.0735283 10.650421 2.3340547
-7.8724136 10.68259 2.5506518
-7.7266541 10.702776 2.6824901
-7.5255394 10.734943 2.8990877
-7.3313398 10.765615 3.1050966
-7.2478538 10.772218 3.1415944
-7.1574473 10.780222 3.1886966
-7.0532036 10.79132 3.2569768
-6.9627962 10.79942 3.3040719
-6.8723898 10.807523 3.3511667
-6.7612247 10.820117 3.4300439
-6.691576 10.823627 3.4453635
-6.6080894 10.830231 3.4818611
-6.5246038 10.836735 3.5183663
-6.434196 10.844837 3.5654609
-6.3645473 10.848346 3.5807805
-6.2672243 10.857945 3.638464
-6.1906528 10.863052 3.6643732
-6.1210041 10.866561 3.679693
-6.0513535 10.87017 3.6950052
-5.9886255 10.87218 3.6997275
-5.9189816 10.875688 3.7150385
-5.8562527 10.877797 3.7197537
-5.7866035 10.881307 3.7350731
-5.723875 10.883317 3.7397957
-5.6611452 10.885427 3.7445111
-5.5914965 10.888935 3.759831
-5.5218468 10.892445 3.7751501
-5.466033 10.893059 3.7692761
-5.4033051 10.895068 3.773999
-5.3474975 10.89558 3.7681246
-5.2916899 10.896093 3.7622497
-5.2289619 10.898104 3.7669728
-5.1800685 10.897219 3.7505016
-5.1242557 10.897731 3.7446361
-5.0753689 10.896745 3.7281642
-5.0264769 10.895761 3.7117014
-4.9706688 10.896273 3.705827
-4.9286976 10.893789 3.678767
-4.8728848 10.894303 3.6729004
-4.8032398 10.897911 3.6882043
-4.7474275 10.898425 3.6823385
-4.6916199 10.898936 3.6764636
-4.635807 10.899449 3.6705976
-4.579998 10.900061 3.6647158
-4.5103493 10.90357 3.6800351
-4.4476209 10.90558 3.6847582
-4.3710494 10.910686 3.7106671
-4.2875643 10.917192 3.7471724
-4.2187281 10.920319 3.7612655
-4.1507077 10.922865 3.7741468
-4.0957093 10.922898 3.7670617
-4.0407104 10.922929 3.7599773
-3.9922285 10.921704 3.7429004
-3.9437461 10.920478 3.7258239
-3.8952584 10.919253 3.7087555
-3.8467765 10.918027 3.6916783
-3.8048053 10.915545 3.6646183
-3.7563171 10.914319 3.6475503
-3.707835 10.913093 3.6304734
-3.6658638 10.910609 3.6034133
-3.6108708 10.910641 3.5963192
-3.555872 10.910674 3.5892348
-3.5008736 10.910707 3.5821497
-3.439364 10.911994 3.5850482
-3.3713436 10.914541 3.5979297
-3.3033175 10.91709 3.6108198
-3.235297 10.919637 3.6237016
-3.1672711 10.922184 3.6365917
-3.0927343 10.925988 3.6594653
-3.0181961 10.929893 3.6823311
-2.9436648 10.933697 3.7051959
-2.862617 10.938759 3.7380526
-2.794591 10.941305 3.7509432
-2.7330813 10.942596 3.7538416
-2.6715717 10.943885 3.7567401
-2.6165733 10.943916 3.7496545
-2.5420365 10.947721 3.7725282
-2.467505 10.951526 3.795393
-2.3994789 10.954074 3.8082829
-2.3444803 10.954105 3.8011985
-2.2894874 10.954136 3.7941046
-2.1693573 10.966743 3.8868866
-2.1078467 10.968134 3.8897779
-2.0463369 10.969424 3.8926764
