# .PCD v0.7 - Point Cloud Data file format
VERSION 0.7
FIELDS x y z rgb
SIZE 4 4 4 4
TYPE F F F U
COUNT 1 1 1 1
WIDTH 1137
HEIGHT 1
VIEWPOINT 0 0 0 1 0 0 0
POINTS 1137
DATA ascii
52.669998 37.279999 54.689999 4294901760
53.27 36.720001 54.790001 4294901760
53.290001 36.709999 55.09 4294901760
53.310001 37.16 54.639999 4294901760
53.32 36.970001 54.709999 4294901760
53.34 36.869999 54.880001 4294901760
53.209999 36.75 54.889999 4294901760
53.220001 36.450001 54.799999 4294901760
53.23 36.290001 54.91 4294901760
53.240002 36.720001 54.779999 4294901760
53.25 36.509998 54.829998 4294901760
53.549999 37.16 54.759998 4294901760
53.560001 36.939999 54.779999 4294901760
53.580002 36.990002 55.16 4294901760
53.57 36.299999 54.559998 4294901760
53.689999 37.599998 56.889999 4294901760
53.720001 37.75 57.380001 4294901760
53.880001 37.900002 54.380001 4294901760
53.91 36.919998 54.34 4294901760
53.91 36.389999 53.939999 4294901760
53.98 37.220001 55.349998 4294901760
54.049999 37.700001 56.599998 4294901760
54.029999 37.049999 56.059998 4294901760
54.07 37.27 56.649998 4294901760
54.169998 35.720001 57.079998 4294901760
54 37.93 54.59 4294901760
54.02 36.75 54.27 4294901760
54.130001 37.040001 55.899998 4294901760
54.130001 36.799999 55.899998 4294901760
54.200001 36.09 56.489998 4294901760
54.220001 36.040001 56.73 4294901760
54.240002 35.93 56.899998 4294901760
54.25 35.709999 56.93 4294901760
54.27 35.619999 57.110001 4294901760
53.869999 37.810001 54.18 4294901760
53.91 36.91 54.239998 4294901760
53.91 36.470001 53.969997 4294901760
53.91 36.150002 53.84 4294901760
54.040001 37.560001 56.34 4294901760
54.040001 37.110001 56.07 4294901760
54.07 37.290001 56.599998 4294901760
54.099998 35.939999 56.369999 4294901760
54.119999 35.869999 56.59 4294901760
54.139999 35.799999 56.799999 4294901760
54.16 35.75 57.049999 4294901760
53.82 38.07 54.549999 4294901760
53.84 37.009998 54.360001 4294901760
53.84 36.630001 54.18 4294901760
53.84 36.200001 53.919998 4294901760
53.93 37.330002 55.739998 4294901760
53.98 37.759998 56.610001 4294901760
53.970001 37.189999 56.16 4294901760
54.009998 37.549999 56.950001 4294901760
54.200001 37.689999 54.040001 4294901760
54.220001 37.650002 54.299999 4294901760
54.220001 36.900002 53.919998 4294901760
54.23 36.290001 53.75 4294901760
54.310001 36.82 55.079998 4294901760
54.34 36.619999 55.439999 4294901760
54.360001 36.630001 55.75 4294901760
54.360001 36.150002 55.450001 4294901760
54.380001 36.02 55.59 4294901760
54.490002 37.450001 53.739998 4294901760
54.599998 37.889999 55.610001 4294901760
54.650002 37.970001 56.329998 4294901760
54.639999 37.439999 55.93 4294901760
54.57 35.689999 53.93 4294901760
54.580002 35.5 53.989998 4294901760
54.689999 36.75 56.259998 4294901760
54.700001 36.57 56.34 4294901760
54.709999 36.240002 56.200001 4294901760
54.720001 36.009998 56.200001 4294901760
54.740002 36.02 56.540001 4294901760
54.77 35.75 56.790001 4294901760
54.709999 37.119999 53.399998 4294901760
54.73 37.029999 53.599998 4294901760
54.880001 37.200001 56.02 4294901760
54.849998 35.66 54.599998 4294901760
54.889999 36.139999 55.540001 4294901760
54.939999 36.77 56.66 4294901760
54.959999 36.759998 56.959999 4294901760
54.98 36.799999 57.309998 4294901760
54.959999 35.790001 56.32 4294901760
54.490002 37.939999 54.18 4294901760
54.490002 37.529999 53.939999 4294901760
54.639999 37.400002 55.950001 4294901760
54.57 35.470001 54.029999 4294901760
54.700001 36.529999 56.349998 4294901760
54.709999 35.970001 56.23 4294901760
54.73 35.950001 56.5 4294901760
54.75 35.779999 56.599998 4294901760
54.759998 35.700001 56.790001 4294901760
54.48 37.950001 54.239998 4294901760
54.490002 37.740002 54.259998 4294901760
54.630001 37.400002 56 4294901760
54.669998 36.93 56.309998 4294901760
54.68 36.66 56.25 4294901760
54.689999 36.48 56.32 4294901760
54.700001 35.950001 56.239998 4294901760
54.720001 35.889999 56.469997 4294901760
54.759998 35.75 56.91 4294901760
54.740002 37.040001 53.309998 4294901760
54.759998 37.029999 53.619999 4294901760
54.93 37.25 56.110001 4294901760
54.93 36.889999 55.93 4294901760
54.880001 35.580002 54.540001 4294901760
54.93 36.18 55.630001 4294901760
54.98 36.720001 56.630001 4294901760
55 36.619999 56.809998 4294901760
55.029999 36.700001 57.209999 4294901760
54.990002 35.610001 56.130001 4294901760
55.130001 36.73 53.66 4294901760
55.150002 36.639999 53.84 4294901760
55.18 35.93 53.869999 4294901760
55.200001 35.91 54.149998 4294901760
55.240002 36.32 55 4294901760
55.299999 37.169998 56.43 4294901760
55.330002 37.259998 56.84 4294901760
55.330002 36.990002 56.799999 4294901760
55.349998 36.98 57.09 4294901760
55.360001 36.759998 57.110001 4294901760
55.360001 35.91 56.619999 4294901760
55.380001 35.869999 56.869999 4294901760
55.400002 35.77 57.040001 4294901760
55.060001 36.869999 53.329998 4294901760
55.080002 36.75 53.489998 4294901760
55.09 36.650002 53.689999 4294901760
55.110001 36.599998 53.939999 4294901760
55.16 36.32 54.509998 4294901760
55.279999 37.209999 56.610001 4294901760
55.259998 36.610001 56.139999 4294901760
55.310001 37 56.939999 4294901760
55.32 36.880001 57.079998 4294901760
55.32 36.009998 56.57 4294901760
55.330002 35.869999 56.689999 4294901760
55.34 35.73 56.82 4294901760
54.689999 37.169998 53.41 4294901760
54.830002 37.25 55.399998 4294901760
54.889999 37.310001 56.099998 4294901760
54.830002 35.630001 54.52 4294901760
54.880001 36.139999 55.5 4294901760
54.939999 36.73 56.57 4294901760
54.959999 36.700001 56.82 4294901760
54.98 36.66 57.079998 4294901760
54.950001 35.68 56.119999 4294901760
54.509998 37.470001 53.799999 4294901760
54.630001 37.759998 55.450001 4294901760
54.68 37.849998 56.18 4294901760
54.68 37.389999 55.889999 4294901760
54.599998 35.509998 54.040001 4294901760
54.740002 36.82 56.360001 4294901760
54.740002 36.549999 56.32 4294901760
54.759998 36.389999 56.419998 4294901760
54.759998 36.049999 56.290001 4294901760
54.68 37.169998 53.450001 4294901760
54.689999 37.040001 53.579998 4294901760
54.880001 37.220001 56.02 4294901760
54.82 35.610001 54.529999 4294901760
54.880001 36.099998 55.489998 4294901760
54.950001 36.75 56.639999 4294901760
54.970001 36.75 56.939999 4294901760
55 36.84 57.349998 4294901760
54.950001 35.700001 56.189999 4294901760
54.82 36.900002 53.349998 4294901760
54.849998 36.91 53.68 4294901760
54.849998 36.59 53.579998 4294901760
54.869999 36.450001 53.700001 4294901760
55.029999 37.380001 56.189999 4294901760
55 36.509998 55.349998 4294901760
55.009998 36.299999 55.389999 4294901760
55.040001 36.369999 55.790001 4294901760
55.049999 36.130001 55.790001 4294901760
55.099998 36.529999 56.619999 4294901760
55.130001 36.68 57.119999 4294901760
55.099998 35.759998 56.23 4294901760
55.110001 35.540001 56.25 4294901760
55.119999 35.43 56.41 4294901760
54.75 37.619999 54.189999 4294901760
54.720001 36.98 53.66 4294901760
54.869999 37.540001 55.66 4294901760
54.860001 35.529999 54.57 4294901760
54.919998 36.09 55.610001 4294901760
54.990002 36.68 56.68 4294901760
55.02 36.669998 56.969997 4294901760
55.049999 36.759998 57.369999 4294901760
54.68 37.209999 53.459999 4294901760
54.900002 37.310001 56.099998 4294901760
54.84 35.66 54.540001 4294901760
54.900002 36.110001 55.450001 4294901760
54.950001 36.450001 56.200001 4294901760
54.990002 36.740002 56.889999 4294901760
55.02 36.720001 57.16 4294901760
54.98 36.84 53.43 4294901760
55 36.759998 53.649998 4294901760
55.009998 36.59 53.739998 4294901760
55.080002 36.139999 54.389999 4294901760
55.080002 35.75 54.200001 4294901760
55.209999 37.16 56.360001 4294901760
55.23 36.689999 56.360001 4294901760
55.259998 36.07 56.459999 4294901760
55.259998 35.73 56.329998 4294901760
55.290001 35.77 56.689999 4294901760
55.32 35.790001 57.02 4294901760
55.360001 36.740002 53.98 4294901760
55.450001 36.220001 54.860001 4294901760
55.470001 36.040001 54.939999 4294901760
55.560001 37.110001 56.639999 4294901760
55.57 36.060001 56.189999 4294901760
55.509998 36.970001 53.559998 4294901760
55.650002 37.830002 55.689999 4294901760
55.59 36.709999 54.489998 4294901760
55.610001 36.630001 54.689999 4294901760
55.639999 36.630001 55.02 4294901760
55.689999 36.59 55.59 4294901760
55.720001 36.68 56.009998 4294901760
55.77 36.419998 56.579998 4294901760
55.549999 37.540001 54 4294901760
55.529999 36.91 53.459999 4294901760
55.669998 37.84 55.669998 4294901760
55.619999 36.669998 54.419998 4294901760
55.639999 36.689999 54.739998 4294901760
55.689999 36.650002 55.32 4294901760
55.720001 36.610001 55.579998 4294901760
55.799999 36.419998 56.549999 4294901760
56.009998 37.540001 53.969997 4294901760
56.049999 37.02 54.209999 4294901760
56.139999 36.57 55.200001 4294901760
56.189999 36.110001 55.509998 4294901760
56.23 36.439999 56.239998 4294901760
56.25 36.349998 56.439999 4294901760
56.27 36.25 56.610001 4294901760
56.34 37.630001 54.579998 4294901760
56.34 36.93 54.259998 4294901760
56.360001 36.799999 54.389999 4294901760
56.450001 36.43 55.469997 4294901760
56.470001 36.380001 55.709999 4294901760
56.5 36.43 56.07 4294901760
56.330002 37.759998 54.57 4294901760
56.32 36.869999 54 4294901760
56.349998 36.990002 54.48 4294901760
56.380001 36.669998 54.68 4294901760
56.48 36.389999 55.860001 4294901760
56.540001 36.200001 56.549999 4294901760
56.23 36.919998 53.84 4294901760
56.259998 36.950001 54.209999 4294901760
56.299999 36.759998 54.59 4294901760
56.400002 36.400002 55.669998 4294901760
56.43 36.66 56.309998 4294901760
56.450001 37.57 54.34 4294901760
56.470001 37.080002 54.309998 4294901760
56.470001 36.75 54.189999 4294901760
56.860001 37 54.639999 4294901760
56.919998 36.380001 55.07 4294901760
56.950001 36.380001 55.380001 4294901760
57.080002 36.400002 54.790001 4294901760
57.119999 36.439999 55.450001 4294901760
57 37.18 54.880001 4294901760
57.009998 36.52 54.639999 4294901760
57.049999 36.41 55.099998 4294901760
57.07 36.299999 55.279999 4294901760
57.09 36.279999 55.549999 4294901760
57.040001 36.400002 55.27 4294901760
57.049999 36.240002 55.369999 4294901760
59.599998 34.68 60.25 4294901760
59.610001 34.470001 60.279999 4294901760
59.709999 34.73 60.239998 4294901760
59.720001 34.490002 60.239998 4294901760
59.740002 34.360001 60.349998 4294901760
59.77 34.82 60.16 4294901760
59.779999 34.66 60.25 4294901760
59.790001 34.439999 60.259998 4294901760
60.279999 37.240002 58.209999 4294901760
60.119999 37.259998 58.239998 4294901760
60.23 37.23 58.23 4294901760
60.049999 37 58.169998 4294901760
60.049999 37.150002 58.149998 4294901760
59.700001 34.400002 60.27 4294901760
59.689999 34.549999 60.259998 4294901760
59.689999 34.700001 60.279999 4294901760
59.68 34.830002 60.25 4294901760
59.68 34.970001 60.209999 4294901760
59.700001 34.459999 60.27 4294901760
59.700001 34.610001 60.290001 4294901760
59.689999 34.75 60.279999 4294901760
59.689999 34.880001 60.18 4294901760
59.689999 35.029999 60.189999 4294901760
59.689999 35.169998 60.16 4294901760
60.009998 36.650002 58.059998 4294901760
60 36.810001 58.149998 4294901760
59.990002 37.27 58.23 4294901760
60.110001 37.200001 58.200001 4294901760
59.689999 34.380001 60.290001 4294901760
59.689999 34.52 60.239998 4294901760
59.689999 34.669998 60.279999 4294901760
59.68 34.810001 60.27 4294901760
59.68 34.950001 60.27 4294901760
59.68 35.080002 60.169998 4294901760
56.93 36.380001 55.630001 4294901760
56.950001 36.450001 55.029999 4294901760
56.830002 36.119999 55.169998 4294901760
56.82 36.299999 55.360001 4294901760
56.810001 36.459999 55.360001 4294901760
56.810001 36.599998 55.25 4294901760
56.810001 37.310001 54.860001 4294901760
56.610001 36.419998 54.98 4294901760
56.599998 36.580002 55.079998 4294901760
56.610001 36.669998 54.610001 4294901760
56.610001 36.810001 54.469997 4294901760
56.619999 36.91 54.119999 4294901760
56.59 37.32 54.82 4294901760
56.43 36.349998 56.779999 4294901760
56.43 36.759998 56.389999 4294901760
56.48 36.68 54.75 4294901760
56.459999 37.599998 54.610001 4294901760
56.349998 36.330002 56.369999 4294901760
56.380001 36.360001 55.549999 4294901760
56.380001 36.509998 55.450001 4294901760
56.34 36.779999 56.27 4294901760
56.400002 36.689999 54.540001 4294901760
56.41 36.93 54 4294901760
56.389999 37.139999 54.419998 4294901760
56.43 36.310001 56.669998 4294901760
56.459999 36.330002 55.779999 4294901760
56.43 36.720001 56.360001 4294901760
56.490002 36.669998 54.82 4294901760
56.490002 36.779999 54.52 4294901760
56.509998 36.860001 54.02 4294901760
56.470001 37.549999 54.509998 4294901760
56.290001 36.290001 56.610001 4294901760
56.330002 36.27 55.419998 4294901760
56.290001 36.57 56.489998 4294901760
56.290001 36.700001 56.34 4294901760
56.34 36.68 55.049999 4294901760
56.349998 36.75 54.469997 4294901760
56.360001 36.860001 54.139999 4294901760
56.349998 37.060001 54.43 4294901760
55.990002 36.080002 55.790001 4294901760
56 36.150002 55.23 4294901760
55.950001 36.5 56.599998 4294901760
55.939999 36.689999 56.919998 4294901760
55.93 36.860001 57.009998 4294901760
55.939999 36.939999 56.559998 4294901760
56.009998 36.939999 54.25 4294901760
56.02 37.349998 53.799999 4294901760
55.82 35.580002 54.700001 4294901760
55.82 35.720001 54.610001 4294901760
55.759998 36.25 56.149998 4294901760
55.759998 36.380001 56.02 4294901760
55.73 36.630001 56.700001 4294901760
55.75 36.700001 56.119999 4294901760
55.77 36.77 55.5 4294901760
55.810001 36.889999 54.02 4294901760
56 35.57 54.969997 4294901760
55.970001 36.099998 55.48 4294901760
55.919998 36.450001 56.799999 4294901760
55.91 36.610001 56.869999 4294901760
55.919998 36.709999 56.529999 4294901760
55.919998 36.830002 56.34 4294901760
56 36.849998 54.139999 4294901760
56.169998 36.049999 55.799999 4294901760
56.139999 36.290001 56.43 4294901760
56.150002 36.380001 56.029999 4294901760
56.099998 36.689999 57.149998 4294901760
56.18 36.580002 55.23 4294901760
56.110001 36.939999 56.739998 4294901760
56.209999 36.75 54.189999 4294901760
56.209999 36.889999 54.07 4294901760
56.189999 37.540001 54.290001 4294901760
55.939999 36.080002 55.84 4294901760
55.959999 36.150002 55.219997 4294901760
55.91 36.470001 56.369999 4294901760
55.889999 36.689999 56.939999 4294901760
55.93 36.68 55.790001 4294901760
55.919998 36.860001 55.93 4294901760
55.98 36.790001 54.27 4294901760
55.98 36.939999 54.239998 4294901760
55.439999 35.889999 56.919998 4294901760
55.509998 35.849998 54.57 4294901760
55.48 36.099998 55.25 4294901760
55.48 36.259998 55.219997 4294901760
55.419998 36.77 56.739998 4294901760
55.400002 36.970001 57.149998 4294901760
55.400002 37.259998 57.059998 4294901760
55.400002 37.400002 56.919998 4294901760
55.43 37.84 55.669998 4294901760
55.470001 37.830002 54.27 4294901760
55.279999 35.709999 56.889999 4294901760
55.279999 35.860001 56.889999 4294901760
55.279999 35.990002 56.75 4294901760
55.32 36.09 55.329998 4294901760
55.330002 36.220001 55.189999 4294901760
55.360001 36.23 54.099998 4294901760
55.27 36.740002 56.66 4294901760
55.240002 36.959999 57.189999 4294901760
55.259998 37.029999 56.619999 4294901760
55.240002 37.369999 56.889999 4294901760
55.330002 37.630001 54.07 4294901760
55.32 37.799999 54.25 4294901760
55.509998 35.84 56.989998 4294901760
55.57 35.93 55.52 4294901760
55.599998 36.389999 54.43 4294901760
55.57 36.75 54.799999 4294901760
55.470001 37.360001 57.079998 4294901760
55.610001 36.919998 53.669998 4294901760
55.48 37.48 56.880001 4294901760
55.580002 37.599998 54.16 4294901760
55.759998 35.740002 54.619999 4294901760
55.68 36.290001 56.27 4294901760
55.669998 36.470001 56.459999 4294901760
55.68 36.73 56.130001 4294901760
55.700001 36.779999 55.43 4294901760
55.77 36.73 53.849998 4294901760
55.759998 36.900002 54.02 4294901760
55.610001 37.470001 57.200001 4294901760
55.34 35.84 56.93 4294901760
55.34 35.950001 56.689999 4294901760
55.389999 35.93 55.509998 4294901760
55.380001 36.07 55.459999 4294901760
55.389999 36.200001 55.279999 4294901760
55.439999 36.18 54.040001 4294901760
55.34 36.650002 56.290001 4294901760
55.290001 36.939999 57.25 4294901760
55.310001 37.029999 56.84 4294901760
55.299999 37.18 56.829998 4294901760
55.419998 36.790001 53.889999 4294901760
55.290001 37.34 56.950001 4294901760
55.290001 37.48 56.860001 4294901760
54.82 35.470001 55.809998 4294901760
54.830002 35.599998 55.669998 4294901760
54.799999 35.849998 56.299999 4294901760
54.82 35.900002 55.549999 4294901760
54.860001 36.139999 54.009998 4294901760
54.869999 36.27 53.849998 4294901760
54.740002 36.880001 57.139999 4294901760
54.759998 36.98 56.759998 4294901760
54.869999 36.689999 53.43 4294901760
54.860001 36.84 53.419998 4294901760
54.77 37.32 55.919998 4294901760
54.779999 37.419998 55.469997 4294901760
54.810001 37.619999 54.619999 4294901760
54.639999 35.73 56.689999 4294901760
54.650002 35.82 56.23 4294901760
54.639999 35.990002 56.34 4294901760
54.650002 36.09 55.989998 4294901760
54.66 36.16 55.459999 4294901760
54.720001 36.09 53.880001 4294901760
54.720001 36.23 53.779999 4294901760
54.619999 36.77 56.540001 4294901760
54.610001 36.919998 56.5 4294901760
54.709999 36.82 53.48 4294901760
54.630001 37.259998 55.619999 4294901760
54.630001 37.400002 55.540001 4294901760
54.630001 37.540001 55.439999 4294901760
54.619999 37.720001 55.709999 4294901760
54.599998 37.919998 56.02 4294901760
54.970001 35.310001 55.119999 4294901760
54.93 35.59 55.969997 4294901760
54.970001 35.57 54.849998 4294901760
54.959999 35.740002 54.91 4294901760
54.959999 35.889999 54.82 4294901760
54.919998 36.169998 55.700001 4294901760
54.93 36.290001 55.5 4294901760
54.849998 36.709999 57.369999 4294901760
54.860001 36.810001 57.029999 4294901760
54.860001 36.939999 56.919998 4294901760
54.900002 36.959999 55.93 4294901760
54.880001 37.150002 56.18 4294901760
54.880001 37.290001 56.079998 4294901760
54.990002 37.080002 53.34 4294901760
54.900002 37.509998 55.469997 4294901760
55.040001 35.360001 56.079998 4294901760
55.040001 35.509998 56 4294901760
55.029999 35.669998 56.099998 4294901760
55.040001 35.799999 55.939999 4294901760
55.07 35.830002 55.110001 4294901760
55.040001 36.07 55.719997 4294901760
55.02 36.25 55.919998 4294901760
55.029999 36.380001 55.719997 4294901760
54.970001 36.73 57.110001 4294901760
54.950001 36.900002 57.290001 4294901760
55.02 36.84 55.709999 4294901760
55.099998 36.73 53.739998 4294901760
55.110001 36.830002 53.369999 4294901760
55.099998 37.18 53.540001 4294901760
55.009998 37.57 55.439999 4294901760
54.630001 35.790001 56.719997 4294901760
54.630001 35.919998 56.52 4294901760
54.66 35.959999 55.759998 4294901760
54.650002 36.110001 55.75 4294901760
54.639999 36.290001 55.950001 4294901760
54.610001 36.82 56.489998 4294901760
54.610001 36.959999 56.349998 4294901760
54.66 37.07 54.869999 4294901760
54.610001 37.349998 55.869999 4294901760
54.630001 37.439999 55.43 4294901760
54.630001 37.59 55.360001 4294901760
54.599998 37.810001 55.950001 4294901760
54.59 37.98 56.099998 4294901760
54.18 35.68 57.02 4294901760
54.18 35.810001 56.919998 4294901760
54.200001 35.880001 56.419998 4294901760
54.18 36.09 56.77 4294901760
54.200001 36.139999 56.149998 4294901760
54.209999 36.240002 55.73 4294901760
54.209999 36.389999 55.700001 4294901760
54.209999 36.540001 55.630001 4294901760
54.200001 36.700001 55.759998 4294901760
54.209999 36.799999 55.389999 4294901760
54.25 36.91 53.849998 4294901760
54.169998 37.369999 56.169998 4294901760
54.25 37.369999 53.709999 4294901760
54.139999 37.860001 56.5 4294901760
54.200001 37.799999 54.759998 4294901760
54.150002 35.599998 57.130001 4294901760
54.16 35.720001 56.919998 4294901760
54.16 35.849998 56.790001 4294901760
54.169998 35.939999 56.380001 4294901760
54.169998 36.060001 56.189999 4294901760
54.189999 36.139999 55.689999 4294901760
54.18 36.299999 55.790001 4294901760
54.18 36.439999 55.68 4294901760
54.169998 36.77 55.799999 4294901760
54.220001 37.439999 53.849998 4294901760
54.110001 37.93 56.509998 4294901760
54.18 37.84 54.57 4294901760
54.27 35.700001 56.989998 4294901760
54.27 35.830002 56.849998 4294901760
54.290001 35.869999 56.079998 4294901760
54.290001 36.029999 56.110001 4294901760
54.299999 36.119999 55.66 4294901760
54.310001 36.380001 55.369999 4294901760
54.299999 36.560001 55.540001 4294901760
54.290001 36.709999 55.57 4294901760
54.299999 36.82 55.209999 4294901760
54.349998 36.939999 53.739998 4294901760
54.23 37.900002 56.48 4294901760
54.32 37.759998 54.099998 4294901760
54.279999 35.73 56.799999 4294901760
54.290001 35.84 56.529999 4294901760
54.290001 35.950001 56.32 4294901760
54.310001 36.040001 55.869999 4294901760
54.310001 36.16 55.649998 4294901760
54.310001 36.32 55.649998 4294901760
54.32 36.43 55.349998 4294901760
54.299999 36.630001 55.649998 4294901760
54.299999 36.77 55.610001 4294901760
54.32 36.830002 54.93 4294901760
54.360001 37.279999 53.509998 4294901760
54.240002 37.790001 56.34 4294901760
54.240002 37.939999 56.41 4294901760
54.330002 37.82 54.149998 4294901760
53.93 35.849998 56.389999 4294901760
54.02 35.950001 53.899998 4294901760
54.009998 36.259998 53.829998 4294901760
53.959999 36.580002 55.029999 4294901760
53.93 36.98 55.68 4294901760
53.970001 36.959999 54.389999 4294901760
53.93 37.25 55.469997 4294901760
53.880001 37.560001 56.639999 4294901760
53.860001 37.75 56.91 4294901760
53.869999 37.869999 56.75 4294901760
53.970001 37.529999 53.989998 4294901760
53.959999 37.709999 54.189999 4294901760
53.73 35.470001 53.77 4294901760
53.720001 35.799999 53.849998 4294901760
53.669998 36.139999 55.049999 4294901760
53.630001 36.689999 55.73 4294901760
53.68 36.650002 54.329998 4294901760
53.610001 37.029999 55.98 4294901760
53.66 37.009998 54.68 4294901760
53.580002 37.57 56.66 4294901760
53.610001 37.59 55.669998 4294901760
53.619999 37.700001 55.23 4294901760
53.709999 35.580002 53.98 4294901760
53.720001 35.689999 53.639999 4294901760
53.66 36.07 55.189999 4294901760
53.709999 36 53.649998 4294901760
53.700001 36.200001 53.939999 4294901760
53.610001 36.93 55.869999 4294901760
53.650002 36.939999 54.82 4294901760
53.580002 37.459999 56.459999 4294901760
53.549999 37.720001 57.27 4294901760
53.610001 37.630001 55.369999 4294901760
53.610001 37.919998 55.290001 4294901760
53.630001 38 54.610001 4294901760
53.950001 35.799999 56.43 4294901760
54.040001 35.650002 54.419998 4294901760
53.959999 36.040001 56.049999 4294901760
54.049999 36.18 53.739998 4294901760
53.990002 36.529999 55.169998 4294901760
53.950001 36.919998 55.77 4294901760
53.939999 37.110001 56.09 4294901760
53.950001 37.220001 55.739998 4294901760
53.919998 37.439999 56.25 4294901760
53.889999 37.68 56.98 4294901760
53.889999 37.799999 56.689999 4294901760
54 37.639999 54.149998 4294901760
54 37.779999 54.009998 4294901760
53.970001 38.02 54.809998 4294901760
54.099998 35.700001 56.989998 4294901760
54.110001 35.82 56.77 4294901760
54.119999 35.91 56.360001 4294901760
54.119999 36.049999 56.25 4294901760
54.130001 36.189999 56.130001 4294901760
54.139999 36.290001 55.82 4294901760
54.139999 36.419998 55.649998 4294901760
54.220001 36.330002 53.91 4294901760
54.130001 36.740002 55.790001 4294901760
54.130001 36.869999 55.630001 4294901760
54.209999 36.939999 53.75 4294901760
54.110001 37.369999 55.889999 4294901760
54.07 37.889999 56.43 4294901760
54.150002 37.82 54.57 4294901760
53.849998 35.740002 56.380001 4294901760
53.849998 36.009998 56.130001 4294901760
53.939999 35.869999 54.119999 4294901760
53.900002 36.139999 54.919998 4294901760
53.93 36.169998 54.02 4294901760
53.880001 36.48 55.149998 4294901760
53.830002 37.330002 55.77 4294901760
53.779999 37.619999 56.869999 4294901760
53.900002 37.580002 54.07 4294901760
53.860001 37.970001 54.709999 4294901760
53.630001 35.610001 53.73 4294901760
53.529999 36.080002 55.91 4294901760
53.540001 36.34 55.559998 4294901760
53.57 36.66 54.5 4294901760
53.5 37.009998 55.969997 4294901760
53.549999 37.009998 54.799999 4294901760
53.560001 37.110001 54.380001 4294901760
53.490002 37.610001 55.939999 4294901760
53.52 38.09 54.82 4294901760
53.41 35.889999 55.309998 4294901760
53.41 36.029999 55.169998 4294901760
53.419998 36.139999 54.899998 4294901760
53.419998 36.279999 54.82 4294901760
53.360001 36.610001 56.07 4294901760
53.43 36.52 54.32 4294901760
53.419998 36.709999 54.529999 4294901760
53.400002 36.93 54.989998 4294901760
53.400002 37.049999 54.739998 4294901760
53.400002 37.209999 54.759998 4294901760
53.369999 38.009998 54.989998 4294901760
53.709999 35.599998 54.23 4294901760
53.669998 36.029999 55.029999 4294901760
53.709999 36.189999 54 4294901760
53.630001 36.57 55.619999 4294901760
53.610001 36.919998 55.919998 4294901760
53.66 36.91 54.719997 4294901760
53.57 37.439999 56.469997 4294901760
53.529999 37.689999 57.209999 4294901760
53.610001 37.91 55.279999 4294901760
53.73 35.52 54.669998 4294901760
53.75 35.619999 54.299999 4294901760
53.700001 36.040001 55.049999 4294901760
53.740002 36.209999 54.09 4294901760
53.650002 36.619999 55.899998 4294901760
53.639999 36.93 55.91 4294901760
53.700001 36.91 54.599998 4294901760
53.599998 37.450001 56.459999 4294901760
53.560001 37.709999 57.25 4294901760
53.66 37.75 55.18 4294901760
53.650002 37.91 55.200001 4294901760
53.68 37.990002 54.540001 4294901760
53.400002 36.099998 55.09 4294901760
53.43 36.139999 54.27 4294901760
53.349998 36.529999 55.939999 4294901760
53.389999 36.540001 54.959999 4294901760
53.41 36.630001 54.469997 4294901760
53.389999 36.830002 54.82 4294901760
53.400002 37.099998 54.540001 4294901760
53.34 38.119999 55.27 4294901760
52.970001 36.27 54.899998 4294901760
52.970001 36.41 54.719997 4294901760
52.93 36.669998 55.559998 4294901760
52.939999 36.790001 55.259998 4294901760
52.939999 36.950001 55.299999 4294901760
52.950001 37.48 54.669998 4294901760
52.830002 36.220001 55.149998 4294901760
52.799999 36.470001 55.809998 4294901760
52.82 36.549999 55.27 4294901760
52.810001 36.709999 55.360001 4294901760
52.799999 36.900002 55.630001 4294901760
52.849998 36.23 55.130001 4294901760
52.82 36.490002 55.860001 4294901760
52.830002 36.720001 55.360001 4294901760
52.82 36.91 55.66 4294901760
52.849998 37.240002 54.619999 4294901760
52.75 36.450001 55.25 4294901760
52.73 36.650002 55.599998 4294901760
52.709999 37.02 56.040001 4294901760
52.580002 37.209999 54.689999 4294901760
52.73 36.98 56.099998 4294901760
52.549999 37.240002 54.559998 4294901760
52.970001 37.189999 55.029999 4294901760
53 36.720001 55.25 4294901760
53.009998 36.23 55.079998 4294901760
52.990002 36.259998 54.599998 4294901760
53.200001 36.459999 56.049999 4294901760
53.150002 36.77 54.98 4294901760
53.16 36.330002 54.73 4294901760
53.150002 36.240002 54.5 4294901760
53.040001 37.220001 54.989998 4294901760
53.110001 36.48 56.200001 4294901760
53.060001 36.77 55.16 4294901760
53.049999 36.740002 54.82 4294901760
53.07 36.290001 54.989998 4294901760
53.060001 36.259998 54.619999 4294901760
53.209999 36.75 55.57 4294901760
53.189999 36.759998 55.119999 4294901760
53.189999 36.360001 54.779999 4294901760
53.84 37.740002 57.099998 4294901760
53.84 37.669998 56.860001 4294901760
53.84 37.540001 56.75 4294901760
53.82 37.490002 56.079998 4294901760
53.75 37.880001 54.860001 4294901760
53.810001 37.259998 55.77 4294901760
53.759998 37.560001 54.709999 4294901760
53.82 36.709999 55.360001 4294901760
53.779999 36.959999 54.41 4294901760
53.880001 35.950001 56.23 4294901760
53.889999 35.759998 56.239998 4294901760
53.790001 36.080002 53.860001 4294901760
53.830002 35.639999 54.419998 4294901760
53.459999 36.889999 55.09 4294901760
53.450001 36.700001 54.73 4294901760
53.470001 36.369999 55.02 4294901760
53.450001 36.259998 54.439999 4294901760
52.490002 37.259998 54.559998 4294901760
52.939999 37.049999 55.349998 4294901760
52.950001 36.720001 55.25 4294901760
52.970001 36.220001 55.130001 4294901760
52.950001 36.189999 54.790001 4294901760
53.880001 37.75 56.809998 4294901760
53.889999 37.619999 56.700001 4294901760
53.869999 37.5 56.169998 4294901760
53.860001 37.299999 55.809998 4294901760
53.869999 37.099998 55.84 4294901760
53.880001 36.889999 55.869999 4294901760
53.939999 35.990002 56.259998 4294901760
53.950001 35.77 56.309998 4294901760
53.889999 36.119999 55.139999 4294901760
53.830002 36.139999 53.82 4294901760
53.849998 35.84 54.079998 4294901760
53.759998 37.790001 57.27 4294901760
53.759998 37.650002 57.169998 4294901760
53.75 37.599998 56.91 4294901760
53.650002 37.889999 55.09 4294901760
53.66 37.650002 55.209999 4294901760
53.669998 36.93 54.739998 4294901760
53.650002 36.91 54.349998 4294901760
53.700001 36.209999 54.68 4294901760
53.68 35.950001 54 4294901760
53.689999 35.740002 54.040001 4294901760
52.830002 37.029999 56.099998 4294901760
52.82 36.970001 55.829998 4294901760
52.82 36.700001 55.59 4294901760
52.43 37.349998 54.75 4294901760
53.459999 37.700001 55.889999 4294901760
53.419998 37.290001 54.759998 4294901760
53.470001 36.880001 55.239998 4294901760
53.450001 36.740002 54.75 4294901760
53.459999 36.57 54.700001 4294901760
53.5 36.189999 55.130001 4294901760
53.450001 36.360001 54.32 4294901760
53.470001 36.09 54.52 4294901760
53.450001 36.09 54.099998 4294901760
54.869999 37.759998 56.200001 4294901760
54.950001 36.880001 57.279999 4294901760
54.939999 36.84 56.969997 4294901760
54.900002 37.029999 56.169998 4294901760
54.830002 37.220001 54.559998 4294901760
54.91 36.470001 55.77 4294901760
54.919998 36.32 55.709999 4294901760
54.939999 36.029999 55.939999 4294901760
54.950001 35.689999 55.880001 4294901760
54.970001 35.43 56.049999 4294901760
54.869999 35.950001 54.049999 4294901760
54.91 35.560001 54.52 4294901760
55.169998 37 57.07 4294901760
55.150002 36.549999 56.07 4294901760
55.220001 35.900002 57.079998 4294901760
55.189999 36.02 56.43 4294901760
55.209999 35.68 56.77 4294901760
55.119999 36.330002 54.91 4294901760
55.060001 36.66 53.759998 4294901760
55.18 35.599998 55.719997 4294901760
55.110001 35.849998 54.32 4294901760
55.110001 35.77 54.09 4294901760
55.150002 35.279999 54.779999 4294901760
54.169998 37.830002 54.48 4294901760
54.290001 36.59 55.93 4294901760
54.150002 37.369999 53.809998 4294901760
54.299999 36.150002 55.689999 4294901760
54.310001 35.950001 55.719997 4294901760
54.299999 35.91 55.399998 4294901760
54.189999 36.349998 53.57 4294901760
54.27 35.540001 54.549999 4294901760
53.610001 37.709999 57.32 4294901760
53.5 37.810001 55.549999 4294901760
53.5 37.689999 55.41 4294901760
53.509998 36.950001 54.969997 4294901760
53.509998 36.66 54.790001 4294901760
53.540001 36.41 54.939999 4294901760
53.529999 36.299999 54.77 4294901760
53.48 36.439999 54.040001 4294901760
54.240002 37.869999 54.439999 4294901760
54.369999 36.639999 55.899998 4294901760
54.349998 36.560001 55.259998 4294901760
54.400002 35.939999 55.790001 4294901760
54.41 35.77 55.77 4294901760
54.27 36.389999 53.549999 4294901760
54.290001 36.16 53.649998 4294901760
55.799999 36.639999 56.860001 4294901760
55.799999 36.5 56.75 4294901760
55.75 36.73 55.459999 4294901760
55.720001 36.860001 54.77 4294901760
55.700001 36.849998 54.399998 4294901760
55.75 36.330002 55.119999 4294901760
55.689999 36.709999 53.860001 4294901760
55.709999 36.459999 53.98 4294901760
55.759998 35.650002 54.559998 4294901760
56.25 36.459999 55.369999 4294901760
56.200001 36.73 54.360001 4294901760
55.380001 37.48 57.34 4294901760
55.369999 37.43 57.07 4294901760
55.360001 37.419998 56.689999 4294901760
55.400002 36.950001 57.299999 4294901760
55.380001 36.84 56.75 4294901760
55.380001 36.75 56.529999 4294901760
55.360001 36.610001 56.049999 4294901760
55.389999 36.240002 56.459999 4294901760
55.419998 35.889999 56.84 4294901760
55.389999 35.830002 56.139999 4294901760
55.25 36.73 53.73 4294901760
55.330002 35.73 54.719997 4294901760
55.310001 35.599998 54.169998 4294901760
55.34 35.25 54.540001 4294901760
54.610001 37.82 55.919998 4294901760
54.57 37.900002 55.34 4294901760
54.610001 37.549999 55.669998 4294901760
54.689999 36.880001 56.700001 4294901760
54.610001 37.23 55.57 4294901760
54.689999 36.650002 56.43 4294901760
54.73 36.009998 56.610001 4294901760
54.73 35.82 56.619999 4294901760
54.650002 36.189999 55.389999 4294901760
54.66 35.84 55.349998 4294901760
54.599998 35.650002 54.09 4294901760
54.599998 35.490002 54.02 4294901760
55.060001 37.59 56.709999 4294901760
55.110001 37.029999 57.09 4294901760
55.02 37.490002 55.719997 4294901760
55.07 36.900002 56.189999 4294901760
55.080002 36.299999 55.889999 4294901760
55.139999 35.77 56.639999 4294901760
54.970001 36.779999 54.009998 4294901760
55.09 35.900002 55.57 4294901760
55.119999 35.57 55.880001 4294901760
55.060001 35.77 55.02 4294901760
55.009998 35.990002 54.110001 4294901760
55.040001 35.619999 54.509998 4294901760
55.07 35.32 54.779999 4294901760
56.119999 36.830002 57 4294901760
56.119999 36.66 56.959999 4294901760
56.080002 36.709999 56.049999 4294901760
56.119999 36.349998 56.439999 4294901760
56.110001 36.25 56.259998 4294901760
56.029999 36.759998 54.719997 4294901760
56.060001 36.150002 54.829998 4294901760
56.43 37.669998 54.529999 4294901760
56.490002 36.66 55.130001 4294901760
56.48 36.639999 54.75 4294901760
56.459999 36.639999 54.34 4294901760
56.009998 36.830002 57.189999 4294901760
56.009998 36.720001 57.029999 4294901760
56.009998 36.619999 56.869999 4294901760
56.009998 36.490002 56.759998 4294901760
55.98 36.130001 55.919998 4294901760
55.939999 36.150002 55.059998 4294901760
55.93 36.040001 54.919998 4294901760
55.950001 35.490002 54.869999 4294901760
55.540001 37.470001 57.360001 4294901760
55.529999 37.400002 57.130001 4294901760
55.5 37.43 56.689999 4294901760
55.419998 37.799999 55.489998 4294901760
55.529999 36.830002 56.77 4294901760
55.349998 37.720001 54.029999 4294901760
55.349998 37.439999 53.829998 4294901760
55.41 36.75 54.540001 4294901760
55.470001 36.25 55.219997 4294901760
55.490002 35.970001 55.41 4294901760
55.439999 35.860001 54.43 4294901760
55.869999 36.68 57 4294901760
55.849998 36.639999 56.68 4294901760
55.84 36.57 56.419998 4294901760
55.810001 36.619999 55.919998 4294901760
55.77 36.610001 55.130001 4294901760
55.779999 36.32 54.950001 4294901760
55.720001 36.57 53.989998 4294901760
55.720001 36.400002 53.93 4294901760
55.720001 36.279999 53.779999 4294901760
56.700001 36.709999 55.02 4294901760
56.720001 36.450001 55.169998 4294901760
56.700001 36.48 54.68 4294901760
57.040001 36.459999 55.509998 4294901760
57.009998 36.41 54.790001 4294901760
56.470001 37.630001 54.59 4294901760
56.52 36.709999 54.959999 4294901760
56.5 36.73 54.509998 4294901760
56.490002 36.630001 54.32 4294901760
56.59 37.59 54.59 4294901760
56.610001 37.290001 54.809998 4294901760
56.610001 37.189999 54.619999 4294901760
56.639999 36.68 54.93 4294901760
56.610001 36.720001 54.439999 4294901760
59.450001 34.700001 60.279999 4294901760
59.52 34.790001 60.23 4294901760
59.529999 34.599998 60.259998 4294901760
59.540001 34.41 60.299999 4294901760
59.59 34.73 60.259998 4294901760
59.59 34.549999 60.27 4294901760
59.66 34.650002 60.279999 4294901760
59.66 34.5 60.23 4294901760
60.060001 37.200001 58.200001 4294901760
59.970001 37.23 58.219997 4294901760
59.77 34.619999 60.290001 4294901760
59.779999 34.459999 60.259998 4294901760
59.860001 36.25 58.149998 4294901760
59.970001 37.220001 58.209999 4294901760
59.990002 36.689999 58.16 4294901760
59.98 36.560001 58.059998 4294901760
60.16 37.139999 58.189999 4294901760
60.09 37.25 58.200001 4294901760
56.970001 36.060001 55.09 4294901760
56.740002 36.439999 54.669998 4294901760
56.709999 36.490002 55.23 4294901760
56.689999 36.5 54.419998 4294901760
56.68 36.32 54.889999 4294901760
56.669998 36.5 55.029999 4294901760
56.650002 36.610001 55.219997 4294901760
56.599998 36.529999 54.509998 4294901760
56.57 36.759998 54.919998 4294901760
56.419998 37.150002 54.66 4294901760
56.389999 36.610001 54.18 4294901760
56.380001 36.43 54.66 4294901760
56.349998 37.139999 54.610001 4294901760
56.330002 36.279999 55.719997 4294901760
56.360001 36.66 54.23 4294901760
56.34 36.369999 54.799999 4294901760
56.299999 36.349998 55.73 4294901760
56.259998 36.439999 56.559998 4294901760
56.209999 36.330002 56.439999 4294901760
56.099998 36.869999 54.299999 4294901760
55.990002 36.5 56.77 4294901760
55.98 36.630001 56.950001 4294901760
56.169998 36.810001 54.34 4294901760
56.139999 36.709999 55.059998 4294901760
56.09 36.290001 56.360001 4294901760
56.380001 36.77 54.200001 4294901760
56.5 36.709999 54.32 4294901760
56.459999 36.860001 54.790001 4294901760
56.439999 37.700001 54.630001 4294901760
56.119999 36.880001 54.259998 4294901760
56.080002 36.720001 55.029999 4294901760
55.990002 36.5 56.739998 4294901760
55.98 36.599998 56.939999 4294901760
55.869999 37.07 53.939999 4294901760
55.84 36.169998 55.09 4294901760
55.830002 36.330002 55.25 4294901760
55.880001 36.98 53.98 4294901760
55.860001 36.18 55.049999 4294901760
55.84 36.299999 55.23 4294901760
55.889999 36.720001 54.139999 4294901760
55.849998 36.099998 55.34 4294901760
55.84 36.669998 55.099998 4294901760
55.75 36.48 56.790001 4294901760
55.709999 36.279999 54.25 4294901760
55.459999 35.529999 54.610001 4294901760
55.450001 36.57 53.919998 4294901760
55.41 36.459999 54.649998 4294901760
55.389999 36.200001 55.209999 4294901760
55.310001 35.869999 57.009998 4294901760
55.299999 37.16 56.139999 4294901760
55.400002 36.619999 54.579998 4294901760
55.380001 36.25 55.239998 4294901760
55.310001 35.900002 56.77 4294901760
55.290001 36.799999 56.549999 4294901760
55.259998 37.259998 56.73 4294901760
55.240002 37.080002 57.189999 4294901760
55.259998 35.779999 54.360001 4294901760
55.220001 36.439999 54.66 4294901760
55.130001 36.18 56.419998 4294901760
55.119999 36.57 56.360001 4294901760
55.07 36.939999 56.919998 4294901760
55.049999 36.970001 57.200001 4294901760
54.970001 35.5 54.34 4294901760
54.950001 35.400002 54.73 4294901760
54.939999 36.610001 53.899998 4294901760
54.91 36.34 54.759998 4294901760
54.889999 36.27 55.149998 4294901760
54.869999 35.82 55.869999 4294901760
54.860001 36.27 55.75 4294901760
54.84 36.330002 55.989998 4294901760
54.790001 36.84 56.43 4294901760
54.77 36.830002 56.739998 4294901760
54.759998 36.779999 57.09 4294901760
54.720001 36.73 53.41 4294901760
54.630001 37.240002 54.77 4294901760
54.580002 35.860001 56.669998 4294901760
54.580002 37.290001 55.649998 4294901760
54.560001 37.279999 55.950001 4294901760
54.549999 37.82 55.759998 4294901760
54.529999 37.98 55.919998 4294901760
54.630001 36.799999 53.329998 4294901760
54.619999 36.810001 53.639999 4294901760
54.5 35.990002 56.540001 4294901760
54.490002 37.490002 55.450001 4294901760
54.48 37.299999 55.91 4294901760
54.459999 37.59 55.959999 4294901760
54.450001 35.450001 54.049999 4294901760
54.41 36.849998 53.66 4294901760
54.400002 36.82 53.989998 4294901760
54.380001 36.830002 54.279999 4294901760
54.369999 36.900002 54.529999 4294901760
54.34 36.02 55.639999 4294901760
54.150002 36.259998 53.630001 4294901760
54.130001 35.740002 54.439999 4294901760
54.110001 36.919998 53.939999 4294901760
54.060001 36.669998 55.099998 4294901760
54.02 36.049999 56.27 4294901760
53.939999 37.419998 56.82 4294901760
54.200001 36.970001 53.719997 4294901760
54.16 35.900002 55.329998 4294901760
54.130001 36.16 55.689999 4294901760
54.110001 36.400002 55.77 4294901760
54.09 36.07 56.389999 4294901760
54.080002 35.880001 56.860001 4294901760
54.330002 37.060001 53.59 4294901760
54.279999 36.630001 54.93 4294901760
54.259998 36.34 55.5 4294901760
54.25 36.619999 55.540001 4294901760
54.200001 35.799999 56.889999 4294901760
54.23 36.209999 53.559998 4294901760
54.189999 36.939999 53.790001 4294901760
54.139999 35.919998 55.369999 4294901760
54.099998 36.630001 55.610001 4294901760
54.080002 36.48 56.059998 4294901760
54.060001 35.82 56.950001 4294901760
53.860001 35.880001 54.02 4294901760
53.77 37.669998 54.189999 4294901760
53.73 37.91 54.869999 4294901760
53.709999 37.220001 55.809998 4294901760
53.599998 37.740002 57.43 4294901760
53.549999 36.57 54.599998 4294901760
53.52 36.93 54.869999 4294901760
53.689999 36.139999 53.799999 4294901760
53.619999 36.849998 54.649998 4294901760
53.919998 35.799999 54.07 4294901760
53.860001 36.799999 54.369999 4294901760
53.849998 37.27 54.23 4294901760
53.84 37.52 54.290001 4294901760
53.77 37.369999 55.669998 4294901760
53.700001 37.560001 56.700001 4294901760
53.689999 37.630001 56.919998 4294901760
53.669998 37.650002 57.209999 4294901760
53.66 37.619999 57.529999 4294901760
53.950001 36.080002 53.82 4294901760
53.889999 36.889999 54.299999 4294901760
53.880001 37.349998 54.18 4294901760
53.830002 35.799999 56.209999 4294901760
53.799999 37.279999 55.759998 4294901760
53.73 37.529999 56.739998 4294901760
53.709999 37.619999 56.950001 4294901760
53.700001 37.669998 57.189999 4294901760
53.740002 35.950001 53.790001 4294901760
53.720001 35.689999 54.34 4294901760
53.709999 36.48 53.899998 4294901760
53.66 36.91 54.43 4294901760
53.619999 36.110001 55.779999 4294901760
53.59 38.099998 54.849998 4294901760
53.57 37.32 55.869999 4294901760
53.470001 36.259998 54.919998 4294901760
53.439999 36.959999 54.869999 4294901760
53.470001 36.59 54.41 4294901760
53.439999 36.16 55.119999 4294901760
53.419998 36.990002 54.959999 4294901760
53.509998 36.57 54.59 4294901760
53.48 36.939999 54.860001 4294901760
53.73 36.029999 53.77 4294901760
53.700001 35.77 54.329998 4294901760
53.700001 36.52 53.93 4294901760
53.66 36.34 54.700001 4294901760
53.650002 36.759998 54.619999 4294901760
53.599998 36.169998 55.77 4294901760
53.580002 37.75 55.239998 4294901760
53.549999 37.439999 55.809998 4294901760
53.48 36.43 54.66 4294901760
53.459999 36.25 55.130001 4294901760
53.450001 36.939999 54.790001 4294901760
53.299999 36.150002 55.139999 4294901760
53.040001 37.02 54.849998 4294901760
52.540001 37.330002 54.579998 4294901760
54.119999 35.830002 56.799999 4294901760
54.189999 36.549999 55.259998 4294901760
54.110001 36.25 53.68 4294901760
54.700001 36.990002 56.669998 4294901760
54.689999 36.990002 56.380001 4294901760
54.580002 36.209999 56.419998 4294901760
54.560001 36.200001 55.829998 4294901760
54.549999 36.540001 53.380001 4294901760
54.419998 35.540001 53.959999 4294901760
54.549999 36.990002 53.639999 4294901760
54.900002 36.43 56.029999 4294901760
54.91 36.849998 53.809998 4294901760
54.880001 36.66 53.68 4294901760
54.779999 35.91 54.02 4294901760
55.209999 37.110001 56.969997 4294901760
55 35.84 56.529999 4294901760
54.939999 35.540001 56.18 4294901760
54.950001 35.810001 55.009998 4294901760
54.889999 35.5 54.689999 4294901760
54.970001 35.630001 55.860001 4294901760
54.959999 35.490002 54.649998 4294901760
54.950001 36.369999 56.029999 4294901760
54.77 35.639999 54.209999 4294901760
54.939999 36.349998 56.029999 4294901760
54.889999 36.009998 56.02 4294901760
54.93 36.810001 53.790001 4294901760
54.779999 35.790001 54.07 4294901760
55.310001 36 56.73 4294901760
55.330002 36.689999 54.32 4294901760
55.52 36.450001 54.189999 4294901760
55.419998 35.759998 54.469997 4294901760
55.639999 36.470001 55.079998 4294901760
55.66 36.849998 54.149998 4294901760
56.310001 36.540001 56.540001 4294901760
