# .PCD v0.7 - Point Cloud Data file format
VERSION 0.7
FIELDS x y z rgb
SIZE 4 4 4 4
TYPE F F F U
COUNT 1 1 1 1
WIDTH 1272
HEIGHT 1
VIEWPOINT 0 0 0 1 0 0 0
POINTS 1272
DATA ascii
59.869999 35.68 50.799999 4294902015
59.869999 35.52 50.720001 4294902015
59.889999 35.209999 50.989998 4294902015
59.869999 35.27 50.389999 4294902015
59.880001 35.080002 50.400002 4294902015
59.880001 34.900002 50.369999 4294902015
60.200001 37.09 51.16 4294902015
60.200001 36.98 50.970001 4294902015
60.200001 36.849998 50.84 4294902015
60.209999 36.66 50.82 4294902015
60.220001 36.450001 50.860001 4294902015
60.209999 36.419998 50.48 4294902015
60.23 36.060001 50.869999 4294902015
60.240002 35.919998 50.75 4294902015
60.25 35.689999 50.829998 4294902015
60.25 35.509998 50.829998 4294902015
60.259998 35.299999 50.869999 4294902015
60.259998 35.220001 50.619999 4294902015
60.25 35.119999 50.369999 4294902015
60.259998 34.919998 50.389999 4294902015
60.259998 34.779999 50.259998 4294902015
60.439999 37.150002 51.049999 4294902015
60.439999 37 50.959999 4294902015
60.459999 36.77 51.079998 4294902015
60.459999 36.580002 51.040001 4294902015
60.450001 36.560001 50.66 4294902015
60.450001 36.470001 50.419998 4294902015
60.459999 36.209999 50.57 4294902015
60.459999 36.080002 50.41 4294902015
60.490002 35.709999 50.84 4294902015
60.5 35.490002 50.93 4294902015
60.509998 35.23 51.099998 4294902015
60.509998 35.119999 50.919998 4294902015
60.5 35.139999 50.389999 4294902015
60.5 34.939999 50.400002 4294902015
60.5 34.799999 50.279999 4294902015
60.369999 37.060001 51.079998 4294902015
60.369999 36.950001 50.900002 4294902015
60.380001 36.689999 51.07 4294902015
60.369999 36.68 50.630001 4294902015
60.369999 36.5 50.599998 4294902015
60.369999 36.380001 50.43 4294902015
60.400002 36.009998 50.84 4294902015
60.389999 35.98 50.450001 4294902015
60.41 35.619999 50.849998 4294902015
60.419998 35.400002 50.93 4294902015
60.43 35.169998 51.029999 4294902015
60.419998 35.16 50.599998 4294902015
60.419998 35.060001 50.380001 4294902015
60.419998 34.860001 50.380001 4294902015
60.110001 37.189999 51.189999 4294902015
60.110001 37.07 51.02 4294902015
60.099998 37.02 50.689999 4294902015
60.119999 36.77 50.810001 4294902015
60.119999 36.630001 50.68 4294902015
60.110001 36.5 50.540001 4294902015
60.119999 36.330002 50.489998 4294902015
60.150002 35.98 50.880001 4294902015
60.150002 35.790001 50.860001 4294902015
60.150002 35.68 50.68 4294902015
60.150002 35.52 50.59 4294902015
60.169998 35.240002 50.799999 4294902015
60.16 35.220001 50.389999 4294902015
60.16 35.02 50.419998 4294902015
60.16 34.869999 50.32 4294902015
59.860001 37.200001 51.060001 4294902015
59.860001 37.049999 50.98 4294902015
59.849998 37.009998 50.610001 4294902015
59.869999 36.700001 50.889999 4294902015
59.889999 36.439999 51.029999 4294902015
59.880001 36.389999 50.720001 4294902015
59.889999 36.110001 50.919998 4294902015
59.91 35.830002 51.119999 4294902015
59.900002 35.82 50.700001 4294902015
59.91 35.580002 50.799999 4294902015
59.919998 35.360001 50.869999 4294902015
59.919998 35.220001 50.759998 4294902015
59.91 35.18 50.389999 4294902015
59.919998 34.990002 50.389999 4294902015
59.91 34.860001 50.25 4294902015
60.029999 37.169998 51.16 4294902015
60.029999 37.040001 51 4294902015
60.009998 37.049999 50.560001 4294902015
60.02 36.82 50.619999 4294902015
60.029999 36.610001 50.68 4294902015
60.029999 36.5 50.489998 4294902015
60.040001 36.32 50.450001 4294902015
60.07 35.91 50.939999 4294902015
60.080002 35.759998 50.860001 4294902015
60.07 35.669998 50.639999 4294902015
60.080002 35.470001 50.650002 4294902015
60.09 35.23 50.77 4294902015
60.080002 35.200001 50.369999 4294902015
60.09 35 50.380001 4294902015
60.09 34.849998 50.27 4294902015
60.380001 37.049999 51.079998 4294902015
60.369999 37 50.759998 4294902015
60.400002 36.669998 51.079998 4294902015
60.389999 36.599998 50.799999 4294902015
60.389999 36.470001 50.66 4294902015
60.389999 36.349998 50.48 4294902015
60.41 36 50.829998 4294902015
60.400002 35.990002 50.41 4294902015
60.43 35.599998 50.880001 4294902015
60.439999 35.400002 50.919998 4294902015
60.450001 35.16 51.029999 4294902015
60.439999 35.119999 50.669998 4294902015
60.43 35.049999 50.380001 4294902015
60.439999 34.860001 50.360001 4294902015
60.34 37.119999 51.049999 4294902015
60.34 37.009998 50.84 4294902015
60.349998 36.73 51.07 4294902015
60.360001 36.57 51 4294902015
60.360001 36.419998 50.880001 4294902015
60.34 36.389999 50.509998 4294902015
60.360001 36.09 50.759998 4294902015
60.349998 36.040001 50.41 4294902015
60.369999 35.740002 50.68 4294902015
60.389999 35.459999 50.889999 4294902015
60.41 35.200001 51.07 4294902015
60.400002 35.139999 50.75 4294902015
60.380001 35.110001 50.369999 4294902015
60.389999 34.900002 50.400002 4294902015
60.389999 34.75 50.290001 4294902015
59.59 37.240002 50.810001 4294902015
59.59 37.080002 50.739998 4294902015
59.599998 36.880001 50.759998 4294902015
59.59 36.759998 50.579998 4294902015
59.619999 36.43 50.900002 4294902015
59.630001 36.209999 50.959999 4294902015
59.599998 36.23 50.450001 4294902015
59.630001 35.93 50.709999 4294902015
59.639999 35.740002 50.709999 4294902015
59.630001 35.610001 50.57 4294902015
59.66 35.279999 50.91 4294902015
59.630001 35.299999 50.389999 4294902015
59.639999 35.099998 50.419998 4294902015
59.639999 34.93 50.34 4294902015
59.150002 37.27 51.110001 4294902015
59.139999 37.16 50.93 4294902015
59.139999 37.060001 50.73 4294902015
59.16 36.759998 50.959999 4294902015
59.16 36.599998 50.91 4294902015
59.16 36.490002 50.700001 4294902015
59.16 36.32 50.630001 4294902015
59.189999 35.990002 50.950001 4294902015
59.169998 35.93 50.639999 4294902015
59.200001 35.639999 50.900002 4294902015
59.200001 35.5 50.77 4294902015
59.189999 35.400002 50.560001 4294902015
59.18 35.279999 50.369999 4294902015
59.189999 35.07 50.419998 4294902015
59.189999 34.93 50.279999 4294902015
59.43 37.279999 50.919998 4294902015
59.439999 37.07 50.959999 4294902015
59.450001 36.880001 50.959999 4294902015
59.450001 36.73 50.849998 4294902015
59.470001 36.5 50.919998 4294902015
59.450001 36.419998 50.650002 4294902015
59.470001 36.200001 50.73 4294902015
59.490002 35.939999 50.900002 4294902015
59.509998 35.66 51.09 4294902015
59.490002 35.630001 50.73 4294902015
59.5 35.380001 50.849998 4294902015
59.48 35.369999 50.400002 4294902015
59.490002 35.18 50.389999 4294902015
59.5 34.990002 50.41 4294902015
59.490002 34.869999 50.239998 4294902015
60.299999 37.23 51.110001 4294902015
60.310001 37.060001 51.060001 4294902015
60.299999 36.939999 50.91 4294902015
60.32 36.689999 51.049999 4294902015
60.299999 36.669998 50.639999 4294902015
60.310001 36.450001 50.700001 4294902015
60.310001 36.349998 50.470001 4294902015
60.330002 36.009998 50.82 4294902015
60.32 35.970001 50.470001 4294902015
60.349998 35.619999 50.869999 4294902015
60.360001 35.41 50.91 4294902015
60.369999 35.220001 50.919998 4294902015
60.349998 35.209999 50.470001 4294902015
60.349998 35.049999 50.389999 4294902015
60.349998 34.869999 50.360001 4294902015
60.650002 37.189999 51.049999 4294902015
60.650002 37.07 50.91 4294902015
60.66 36.860001 50.91 4294902015
60.66 36.700001 50.860001 4294902015
60.66 36.57 50.709999 4294902015
60.650002 36.5 50.41 4294902015
60.650002 36.290001 50.439999 4294902015
60.66 36.119999 50.41 4294902015
60.700001 35.650002 51.079998 4294902015
60.689999 35.560001 50.82 4294902015
60.700001 35.389999 50.77 4294902015
60.720001 35.080002 51.060001 4294902015
60.689999 35.16 50.389999 4294902015
60.689999 34.959999 50.400002 4294902015
60.700001 34.799999 50.349998 4294902015
60.150002 37.240002 51.200001 4294902015
60.139999 37.110001 51.060001 4294902015
60.139999 36.990002 50.880001 4294902015
60.150002 36.779999 50.93 4294902015
60.139999 36.669998 50.739998 4294902015
60.150002 36.439999 50.829998 4294902015
60.139999 36.389999 50.489998 4294902015
60.18 35.970001 51.02 4294902015
60.18 35.810001 50.950001 4294902015
60.169998 35.700001 50.73 4294902015
60.18 35.52 50.73 4294902015
60.189999 35.310001 50.790001 4294902015
60.169998 35.259998 50.439999 4294902015
60.169998 35.09 50.380001 4294902015
60.18 34.900002 50.369999 4294902015
59.529999 37.34 50.98 4294902015
59.52 37.23 50.799999 4294902015
59.52 37.080002 50.709999 4294902015
59.540001 36.84 50.810001 4294902015
59.549999 36.66 50.790001 4294902015
59.57 36.389999 50.959999 4294902015
59.57 36.200001 50.950001 4294902015
59.549999 36.18 50.529999 4294902015
59.580002 35.860001 50.84 4294902015
59.580002 35.700001 50.779999 4294902015
59.57 35.59 50.57 4294902015
59.599998 35.279999 50.880001 4294902015
59.57 35.279999 50.41 4294902015
59.580002 35.080002 50.400002 4294902015
59.580002 34.939999 50.290001 4294902015
59.77 37.189999 51.060001 4294902015
59.779999 37 51.060001 4294902015
59.75 36.98 50.639999 4294902015
59.790001 36.630001 51.009998 4294902015
59.810001 36.380001 51.119999 4294902015
59.810001 36.23 51.049999 4294902015
59.82 36.02 51.09 4294902015
59.82 35.880001 50.950001 4294902015
59.82 35.740002 50.849998 4294902015
59.82 35.57 50.779999 4294902015
59.830002 35.330002 50.900002 4294902015
59.82 35.240002 50.66 4294902015
59.810001 35.16 50.389999 4294902015
59.82 34.950001 50.450001 4294902015
59.82 34.830002 50.27 4294902015
60.779999 37.169998 51.009998 4294902015
60.790001 37.009998 50.939999 4294902015
60.77 36.970001 50.599998 4294902015
60.799999 36.610001 50.970001 4294902015
60.790001 36.59 50.59 4294902015
60.790001 36.450001 50.459999 4294902015
60.790001 36.279999 50.41 4294902015
60.82 35.950001 50.709999 4294902015
60.849998 35.619999 51.060001 4294902015
60.849998 35.48 50.939999 4294902015
60.849998 35.299999 50.919998 4294902015
60.869999 35.049999 51.07 4294902015
60.830002 35.150002 50.360001 4294902015
60.84 34.950001 50.380001 4294902015
60.84 34.77 50.349998 4294902015
61.5 36.900002 51.139999 4294902015
61.5 36.77 51.02 4294902015
61.490002 36.709999 50.689999 4294902015
61.5 36.540001 50.669998 4294902015
61.52 36.200001 50.989998 4294902015
61.529999 36.009998 50.98 4294902015
61.540001 35.759998 51.110001 4294902015
61.529999 35.709999 50.799999 4294902015
61.549999 35.380001 51.130001 4294902015
61.549999 35.279999 50.900002 4294902015
61.57 35.009998 51.119999 4294902015
61.549999 34.950001 50.790001 4294902015
61.540001 34.950001 50.329998 4294902015
61.540001 34.73 50.380001 4294902015
61.540001 34.610001 50.23 4294902015
61.23 37.040001 51.009998 4294902015
61.23 36.869999 50.950001 4294902015
61.23 36.720001 50.860001 4294902015
61.23 36.610001 50.68 4294902015
61.23 36.470001 50.57 4294902015
61.25 36.16 50.810001 4294902015
61.27 35.900002 50.98 4294902015
61.279999 35.66 51.09 4294902015
61.279999 35.490002 51.040001 4294902015
61.279999 35.380001 50.849998 4294902015
61.290001 35.139999 50.970001 4294902015
61.290001 34.990002 50.869999 4294902015
61.27 35.009998 50.369999 4294902015
61.27 34.810001 50.389999 4294902015
61.27 34.66 50.279999 4294902015
60.650002 37.09 51.060001 4294902015
60.650002 36.98 50.880001 4294902015
60.650002 36.790001 50.860001 4294902015
60.66 36.549999 50.959999 4294902015
60.639999 36.580002 50.450001 4294902015
60.639999 36.400002 50.43 4294902015
60.650002 36.209999 50.43 4294902015
60.66 36 50.459999 4294902015
60.709999 35.540001 51.110001 4294902015
60.689999 35.52 50.689999 4294902015
60.720001 35.16 51.079998 4294902015
60.709999 35.060001 50.860001 4294902015
60.68 35.07 50.369999 4294902015
60.689999 34.880001 50.389999 4294902015
60.689999 34.75 50.23 4294902015
60.799999 37.16 51.02 4294902015
60.799999 37.009998 50.950001 4294902015
60.779999 36.98 50.549999 4294902015
60.799999 36.700001 50.739998 4294902015
60.779999 36.639999 50.439999 4294902015
60.799999 36.419998 50.5 4294902015
60.799999 36.259998 50.439999 4294902015
60.82 35.970001 50.639999 4294902015
60.849998 35.66 50.950001 4294902015
60.849998 35.509998 50.84 4294902015
60.869999 35.23 51.049999 4294902015
60.880001 35.049999 51.009998 4294902015
60.84 35.119999 50.389999 4294902015
60.84 34.939999 50.389999 4294902015
60.849998 34.779999 50.279999 4294902015
61.650002 36.93 51.119999 4294902015
61.639999 36.82 50.93 4294902015
61.639999 36.689999 50.759998 4294902015
61.669998 36.380001 51.060001 4294902015
61.669998 36.200001 51.040001 4294902015
61.66 36.119999 50.75 4294902015
61.68 35.880001 50.880001 4294902015
61.689999 35.630001 51.029999 4294902015
61.709999 35.389999 51.130001 4294902015
61.709999 35.189999 51.139999 4294902015
61.709999 35.07 50.989998 4294902015
61.700001 34.970001 50.77 4294902015
61.689999 34.939999 50.389999 4294902015
61.689999 34.759998 50.369999 4294902015
61.689999 34.610001 50.239998 4294902015
62.290001 36.869999 51.029999 4294902015
62.299999 36.610001 51.200001 4294902015
62.310001 36.43 51.18 4294902015
62.310001 36.299999 51.029999 4294902015
62.310001 36.099998 51.029999 4294902015
62.310001 35.98 50.860001 4294902015
62.330002 35.68 51.139999 4294902015
62.34 35.490002 51.119999 4294902015
62.34 35.349998 51.02 4294902015
62.349998 35.110001 51.139999 4294902015
62.34 35.060001 50.77 4294902015
62.34 34.889999 50.73 4294902015
62.34 34.799999 50.5 4294902015
62.34 34.669998 50.360001 4294902015
62.34 34.52 50.25 4294902015
62.07 36.98 51.150002 4294902015
62.07 36.810001 51.110001 4294902015
62.080002 36.57 51.209999 4294902015
62.07 36.490002 50.93 4294902015
62.09 36.23 51.09 4294902015
62.099998 36.009998 51.150002 4294902015
62.099998 35.860001 51.07 4294902015
62.110001 35.639999 51.139999 4294902015
62.110001 35.490002 51.040001 4294902015
62.130001 35.240002 51.18 4294902015
62.119999 35.099998 51.049999 4294902015
62.119999 35.009998 50.82 4294902015
62.119999 34.860001 50.739998 4294902015
62.099998 34.810001 50.380001 4294902015
62.110001 34.630001 50.360001 4294902015
62.110001 34.509998 50.209999 4294902015
61.59 37 51.119999 4294902015
61.59 36.82 51.07 4294902015
61.59 36.689999 50.91 4294902015
61.57 36.650002 50.560001 4294902015
61.610001 36.279999 50.98 4294902015
61.59 36.25 50.610001 4294902015
61.630001 35.830002 51.150002 4294902015
61.599998 35.84 50.68 4294902015
61.639999 35.43 51.189999 4294902015
61.639999 35.299999 51.040001 4294902015
61.66 35.060001 51.150002 4294902015
61.650002 34.959999 50.93 4294902015
61.619999 35 50.389999 4294902015
61.619999 34.810001 50.380001 4294902015
61.630001 34.650002 50.310001 4294902015
61.68 36.98 51.049999 4294902015
61.689999 36.759998 51.119999 4294902015
61.669998 36.75 50.689999 4294902015
61.689999 36.48 50.880001 4294902015
61.689999 36.349998 50.73 4294902015
61.68 36.200001 50.610001 4294902015
61.709999 35.91 50.84 4294902015
61.720001 35.689999 50.91 4294902015
61.740002 35.43 51.079998 4294902015
61.740002 35.240002 51.079998 4294902015
61.75 35.060001 51.07 4294902015
61.740002 34.959999 50.860001 4294902015
61.720001 34.959999 50.360001 4294902015
61.73 34.759998 50.380001 4294902015
61.720001 34.630001 50.25 4294902015
62.220001 36.93 51.07 4294902015
62.240002 36.68 51.189999 4294902015
62.25 36.48 51.23 4294902015
62.240002 36.360001 51.029999 4294902015
62.240002 36.220001 50.91 4294902015
62.259998 35.939999 51.110001 4294902015
62.27 35.73 51.16 4294902015
62.279999 35.549999 51.16 4294902015
62.279999 35.389999 51.060001 4294902015
62.290001 35.169998 51.16 4294902015
62.279999 35.110001 50.82 4294902015
62.279999 34.939999 50.77 4294902015
62.290001 34.779999 50.700001 4294902015
62.27 34.73 50.349998 4294902015
62.27 34.580002 50.25 4294902015
62.450001 36.889999 50.77 4294902015
62.48 36.5 51.209999 4294902015
62.48 36.349998 51.110001 4294902015
62.48 36.209999 50.989998 4294902015
62.48 36.119999 50.77 4294902015
62.490002 35.880001 50.880001 4294902015
62.490002 35.759998 50.73 4294902015
62.509998 35.470001 50.939999 4294902015
62.52 35.259998 50.989998 4294902015
62.52 35.099998 50.900002 4294902015
62.509998 34.98 50.739998 4294902015
62.52 34.799999 50.739998 4294902015
62.509998 34.75 50.380001 4294902015
62.509998 34.580002 50.349998 4294902015
62.049999 36.93 51.150002 4294902015
62.049999 36.75 51.119999 4294902015
62.060001 36.549999 51.150002 4294902015
62.060001 36.380001 51.099998 4294902015
62.07 36.200001 51.060001 4294902015
62.080002 35.970001 51.16 4294902015
62.09 35.77 51.189999 4294902015
62.07 35.709999 50.860001 4294902015
62.099998 35.419998 51.119999 4294902015
62.099998 35.209999 51.150002 4294902015
62.099998 35.080002 51 4294902015
62.099998 34.970001 50.799999 4294902015
62.099998 34.82 50.720001 4294902015
62.080002 34.77 50.369999 4294902015
62.080002 34.619999 50.259998 4294902015
61.689999 36.830002 51.209999 4294902015
61.689999 36.709999 51.049999 4294902015
61.66 36.700001 50.610001 4294902015
61.689999 36.380001 50.900002 4294902015
61.669998 36.34 50.549999 4294902015
61.689999 36.07 50.75 4294902015
61.689999 35.91 50.669998 4294902015
61.73 35.529999 51.119999 4294902015
61.740002 35.330002 51.130001 4294902015
61.75 35.130001 51.150002 4294902015
61.740002 35.02 50.950001 4294902015
61.73 34.919998 50.75 4294902015
61.709999 34.900002 50.349998 4294902015
61.720001 34.689999 50.389999 4294902015
62.02 36.849998 51.18 4294902015
62.029999 36.68 51.110001 4294902015
62.029999 36.52 51.049999 4294902015
62.049999 36.259998 51.209999 4294902015
62.02 36.259998 50.759998 4294902015
62.060001 35.919998 51.119999 4294902015
62.07 35.709999 51.169998 4294902015
62.060001 35.57 51.02 4294902015
62.080002 35.330002 51.139999 4294902015
62.080002 35.16 51.099998 4294902015
62.080002 35.040001 50.950001 4294902015
62.07 34.93 50.75 4294902015
62.060001 34.82 50.540001 4294902015
62.060001 34.709999 50.349998 4294902015
62.060001 34.560001 50.239998 4294902015
62.5 36.84 50.829998 4294902015
62.529999 36.509998 51.130001 4294902015
62.529999 36.360001 51.040001 4294902015
62.529999 36.220001 50.93 4294902015
62.529999 36.080002 50.799999 4294902015
62.549999 35.810001 50.989998 4294902015
62.540001 35.740002 50.68 4294902015
62.560001 35.459999 50.889999 4294902015
62.580002 35.189999 51.09 4294902015
62.57 35.119999 50.799999 4294902015
62.57 34.970001 50.720001 4294902015
62.580002 34.77 50.720001 4294902015
62.560001 34.720001 50.389999 4294902015
62.560001 34.57 50.290001 4294902015
62.419998 36.880001 50.779999 4294902015
62.459999 36.509998 51.220001 4294902015
62.459999 36.349998 51.130001 4294902015
62.459999 36.209999 51.02 4294902015
62.450001 36.119999 50.77 4294902015
62.470001 35.869999 50.91 4294902015
62.470001 35.73 50.779999 4294902015
62.490002 35.43 51.049999 4294902015
62.5 35.240002 51.029999 4294902015
62.5 35.09 50.939999 4294902015
62.490002 34.990002 50.73 4294902015
62.5 34.790001 50.739998 4294902015
62.48 34.75 50.360001 4294902015
62.490002 34.560001 50.360001 4294902015
61.84 36.959999 51.060001 4294902015
61.860001 36.740002 51.150002 4294902015
61.849998 36.610001 51.02 4294902015
61.869999 36.369999 51.110001 4294902015
61.849998 36.310001 50.810001 4294902015
61.860001 36.130001 50.790001 4294902015
61.860001 35.98 50.66 4294902015
61.869999 35.75 50.75 4294902015
61.900002 35.43 51.079998 4294902015
61.91 35.25 51.060001 4294902015
61.91 35.07 51.029999 4294902015
61.91 34.919998 50.939999 4294902015
61.880001 34.950001 50.380001 4294902015
61.880001 34.759998 50.380001 4294902015
61.880001 34.619999 50.25 4294902015
61.650002 36.990002 51.040001 4294902015
61.66 36.75 51.130001 4294902015
61.639999 36.73 50.759998 4294902015
61.650002 36.509998 50.799999 4294902015
61.650002 36.369999 50.68 4294902015
61.650002 36.200001 50.610001 4294902015
61.68 35.919998 50.829998 4294902015
61.68 35.77 50.739998 4294902015
61.720001 35.41 51.150002 4294902015
61.720001 35.259998 51.060001 4294902015
61.720001 35.060001 51.079998 4294902015
61.709999 34.959999 50.849998 4294902015
61.68 34.970001 50.360001 4294902015
61.689999 34.759998 50.41 4294902015
61.68 34.650002 50.220001 4294902015
62.049999 36.959999 51.130001 4294902015
62.060001 36.75 51.150002 4294902015
62.07 36.57 51.139999 4294902015
62.060001 36.459999 50.950001 4294902015
62.080002 36.200001 51.110001 4294902015
62.09 36.009998 51.119999 4294902015
62.099998 35.799999 51.150002 4294902015
62.09 35.700001 50.91 4294902015
62.110001 35.43 51.110001 4294902015
62.119999 35.23 51.16 4294902015
62.110001 35.099998 51 4294902015
62.110001 35 50.790001 4294902015
62.110001 34.830002 50.73 4294902015
62.09 34.790001 50.360001 4294902015
62.09 34.599998 50.349998 4294902015
62.400002 36.779999 50.939999 4294902015
62.43 36.5 51.16 4294902015
62.419998 36.360001 51.060001 4294902015
62.43 36.169998 51.040001 4294902015
62.419998 36.099998 50.759998 4294902015
62.450001 35.77 51.079998 4294902015
62.439999 35.66 50.869999 4294902015
62.459999 35.439999 50.939999 4294902015
62.470001 35.200001 51.07 4294902015
62.459999 35.119999 50.810001 4294902015
62.470001 34.950001 50.75 4294902015
62.470001 34.779999 50.709999 4294902015
62.450001 34.720001 50.400002 4294902015
62.450001 34.57 50.290001 4294902015
62.25 36.810001 51.099998 4294902015
62.27 36.560001 51.23 4294902015
62.27 36.419998 51.130001 4294902015
62.259998 36.310001 50.919998 4294902015
62.279999 36.07 51.009998 4294902015
62.27 35.950001 50.84 4294902015
62.299999 35.639999 51.139999 4294902015
62.310001 35.470001 51.09 4294902015
62.32 35.259998 51.139999 4294902015
62.32 35.09 51.110001 4294902015
62.299999 35.040001 50.759998 4294902015
62.310001 34.849998 50.739998 4294902015
62.290001 34.799999 50.41 4294902015
62.299999 34.619999 50.369999 4294902015
62.290001 34.490002 50.23 4294902015
61.75 36.830002 51.16 4294902015
61.75 36.720001 51 4294902015
61.740002 36.599998 50.829998 4294902015
61.759998 36.330002 51 4294902015
61.75 36.240002 50.73 4294902015
61.77 35.990002 50.900002 4294902015
61.759998 35.889999 50.68 4294902015
61.799999 35.52 51.099998 4294902015
61.810001 35.330002 51.099998 4294902015
61.810001 35.130001 51.119999 4294902015
61.810001 34.98 51.009998 4294902015
61.799999 34.919998 50.700001 4294902015
61.779999 34.869999 50.369999 4294902015
61.779999 34.68 50.380001 4294902015
61.490002 37 51.220001 4294902015
61.490002 36.830002 51.169998 4294902015
61.48 36.740002 50.91 4294902015
61.459999 36.669998 50.639999 4294902015
61.470001 36.439999 50.73 4294902015
61.5 36.16 50.939999 4294902015
61.529999 35.889999 51.139999 4294902015
61.529999 35.709999 51.110001 4294902015
61.529999 35.540001 51.029999 4294902015
61.540001 35.349998 51.02 4294902015
61.540001 35.169998 51.009998 4294902015
61.560001 34.959999 51.07 4294902015
61.509998 35.029999 50.419998 4294902015
61.509998 34.860001 50.380001 4294902015
61.509998 34.689999 50.34 4294902015
61.810001 36.959999 51.07 4294902015
61.82 36.759998 51.099998 4294902015
61.830002 36.59 51.049999 4294902015
61.830002 36.41 51 4294902015
61.830002 36.27 50.869999 4294902015
61.82 36.169998 50.669998 4294902015
61.84 35.919998 50.810001 4294902015
61.830002 35.790001 50.66 4294902015
61.880001 35.419998 51.09 4294902015
61.889999 35.220001 51.110001 4294902015
61.889999 35.060001 51.02 4294902015
61.889999 34.93 50.880001 4294902015
61.849998 34.939999 50.380001 4294902015
61.860001 34.759998 50.369999 4294902015
61.849998 34.630001 50.23 4294902015
62.669998 36.720001 50.91 4294902015
62.700001 36.419998 51.130001 4294902015
62.709999 36.240002 51.130001 4294902015
62.709999 36.049999 51.119999 4294902015
62.720001 35.880001 51.079998 4294902015
62.73 35.669998 51.119999 4294902015
62.720001 35.549999 50.939999 4294902015
62.740002 35.310001 51.049999 4294902015
62.759998 35.080002 51.139999 4294902015
62.740002 35.040001 50.779999 4294902015
62.740002 34.880001 50.73 4294902015
62.740002 34.73 50.610001 4294902015
62.73 34.650002 50.360001 4294902015
62.73 34.509998 50.23 4294902015
63.130001 36.75 50.810001 4294902015
63.150002 36.459999 51.060001 4294902015
63.169998 36.220001 51.150002 4294902015
63.169998 36.049999 51.110001 4294902015
63.169998 35.889999 51.02 4294902015
63.18 35.720001 50.970001 4294902015
63.189999 35.540001 50.950001 4294902015
63.200001 35 50.869999 4294902015
63.200001 34.880001 50.709999 4294902015
63.200001 34.709999 50.650002 4294902015
63.189999 34.639999 50.34 4294902015
63.189999 34.48 50.27 4294902015
62.779999 36.860001 50.790001 4294902015
62.790001 36.639999 50.860001 4294902015
62.82 36.349998 51.07 4294902015
62.82 36.200001 50.98 4294902015
62.830002 35.970001 51.079998 4294902015
62.84 35.77 51.079998 4294902015
62.849998 35.599998 51.049999 4294902015
62.84 35.450001 50.93 4294902015
62.860001 35.209999 51.040001 4294902015
62.869999 35 51.09 4294902015
62.849998 34.970001 50.709999 4294902015
62.860001 34.779999 50.709999 4294902015
62.84 34.720001 50.400002 4294902015
62.84 34.549999 50.349998 4294902015
62.84 34.43 50.189999 4294902015
62.07 36.950001 51.150002 4294902015
62.080002 36.75 51.16 4294902015
62.080002 36.580002 51.079998 4294902015
62.09 36.400002 51.060001 4294902015
62.099998 36.200001 51.079998 4294902015
62.110001 36 51.119999 4294902015
62.119999 35.779999 51.169998 4294902015
62.110001 35.689999 50.939999 4294902015
62.130001 35.41 51.139999 4294902015
62.139999 35.209999 51.169998 4294902015
62.130001 35.099998 50.970001 4294902015
62.119999 35 50.759998 4294902015
62.130001 34.830002 50.720001 4294902015
62.099998 34.77 50.380001 4294902015
62.099998 34.619999 50.310001 4294902015
62.5 36.59 51.139999 4294902015
62.509998 36.41 51.119999 4294902015
62.52 36.23 51.079998 4294902015
62.5 36.16 50.799999 4294902015
62.529999 35.880001 51.02 4294902015
62.52 35.759998 50.860001 4294902015
62.540001 35.529999 50.93 4294902015
62.549999 35.330002 50.98 4294902015
62.57 35.07 51.119999 4294902015
62.540001 35.040001 50.739998 4294902015
62.549999 34.84 50.739998 4294902015
62.540001 34.759998 50.489998 4294902015
62.540001 34.610001 50.389999 4294902015
62.529999 34.490002 50.209999 4294902015
63.43 36.75 50.759998 4294902015
63.099998 36.830002 50.790001 4294902015
63.119999 36.549999 50.989998 4294902015
63.150002 36.259998 51.200001 4294902015
63.150002 36.099998 51.139999 4294902015
63.150002 35.950001 51.060001 4294902015
63.150002 35.82 50.900002 4294902015
63.16 35.599998 50.989998 4294902015
63.169998 35.419998 50.950001 4294902015
63.169998 34.950001 50.700001 4294902015
63.18 34.759998 50.720001 4294902015
63.16 34.68 50.419998 4294902015
63.16 34.52 50.360001 4294902015
63.16 34.389999 50.200001 4294902015
63.150002 34.459999 50.259998 4294902015
63.130001 34.68 50.360001 4294902015
63.119999 34.700001 50.66 4294902015
63.099998 34.939999 50.739998 4294902015
63.09 35.029999 50.970001 4294902015
63.07 35.25 51.079998 4294902015
63.060001 35.560001 51.079998 4294902015
63.049999 35.880001 51.079998 4294902015
63.029999 36.150002 51.130001 4294902015
63.02 36.439999 51.169998 4294902015
62.889999 34.5 50.27 4294902015
62.880001 34.700001 50.389999 4294902015
62.860001 34.740002 50.669998 4294902015
62.849998 34.990002 50.73 4294902015
62.830002 35.049999 50.989998 4294902015
62.82 35.240002 51.110001 4294902015
62.810001 35.549999 51.130001 4294902015
62.790001 35.84 51.169998 4294902015
62.779999 36.279999 51.060001 4294902015
62.77 36.68 50.98 4294902015
63.09 34.470001 50.209999 4294902015
63.080002 34.650002 50.360001 4294902015
63.060001 34.720001 50.599998 4294902015
63.040001 34.91 50.720001 4294902015
63.029999 35.110001 50.84 4294902015
63.009998 35.25 51.02 4294902015
63 35.529999 51.060001 4294902015
62.990002 35.82 51.099998 4294902015
62.98 36.099998 51.150002 4294902015
62.959999 36.369999 51.200001 4294902015
63.099998 34.529999 50.32 4294902015
63.080002 34.700001 50.48 4294902015
63.07 34.790001 50.720001 4294902015
63.049999 35.080002 50.739998 4294902015
63.029999 35.07 51.060001 4294902015
63.02 35.369999 51.099998 4294902015
63.009998 35.68 51.099998 4294902015
63 36.049999 51.049999 4294902015
62.98 36.25 51.18 4294902015
62.98 36.759998 51.009998 4294902015
62.759998 34.599998 50.32 4294902015
62.740002 34.709999 50.529999 4294902015
62.73 34.830002 50.720001 4294902015
62.709999 35.110001 50.759998 4294902015
62.689999 35.07 51.119999 4294902015
62.68 35.389999 51.130001 4294902015
62.669998 35.810001 51.040001 4294902015
62.650002 35.98 51.200001 4294902015
62.639999 36.389999 51.110001 4294902015
62.630001 36.860001 50.950001 4294902015
62.380001 34.48 50.209999 4294902015
62.369999 34.68 50.329998 4294902015
62.349998 34.759998 50.579998 4294902015
62.34 34.91 50.739998 4294902015
62.32 35.139999 50.84 4294902015
62.310001 35.119999 51.189999 4294902015
62.290001 35.459999 51.18 4294902015
62.279999 35.830002 51.119999 4294902015
62.27 36.139999 51.119999 4294902015
62.259998 36.439999 51.16 4294902015
62.240002 36.740002 51.169998 4294902015
62.16 34.560001 50.220001 4294902015
62.139999 34.759998 50.349998 4294902015
62.130001 34.799999 50.630001 4294902015
62.110001 34.970001 50.77 4294902015
62.099998 35.169998 50.900002 4294902015
62.080002 35.189999 51.18 4294902015
62.07 35.549999 51.150002 4294902015
62.060001 35.84 51.200001 4294902015
62.049999 36.18 51.18 4294902015
62.040001 36.509998 51.169998 4294902015
62.02 36.790001 51.209999 4294902015
62.099998 34.619999 50.279999 4294902015
62.080002 34.830002 50.389999 4294902015
62.060001 34.810001 50.709999 4294902015
62.049999 35.009998 50.84 4294902015
62.040001 35.16 51.009998 4294902015
62.02 35.34 51.150002 4294902015
62.009998 35.689999 51.119999 4294902015
62 35.939999 51.200001 4294902015
61.98 36.25 51.209999 4294902015
61.970001 36.57 51.200001 4294902015
61.959999 36.93 51.18 4294902015
61.93 34.57 50.23 4294902015
61.919998 34.779999 50.349998 4294902015
61.900002 34.889999 50.560001 4294902015
61.880001 34.98 50.799999 4294902015
61.869999 34.990002 51.09 4294902015
61.849998 35.259998 51.150002 4294902015
61.84 35.580002 51.150002 4294902015
61.830002 36.040001 51.009998 4294902015
61.810001 36.240002 51.139999 4294902015
61.799999 36.630001 51.079998 4294902015
61.790001 36.860001 51.169998 4294902015
61.799999 34.599998 50.200001 4294902015
61.779999 34.759998 50.360001 4294902015
61.77 35.02 50.419998 4294902015
61.75 34.950001 50.810001 4294902015
61.73 34.990002 51.079998 4294902015
61.720001 35.23 51.169998 4294902015
61.709999 35.68 51.049999 4294902015
61.700001 36.169998 50.889999 4294902015
61.68 36.349998 51.029999 4294902015
61.669998 36.619999 51.07 4294902015
61.66 36.849998 51.18 4294902015
61.709999 34.68 50.349998 4294902015
61.689999 35.029999 50.32 4294902015
61.68 34.959999 50.709999 4294902015
61.66 35.040001 50.959999 4294902015
61.639999 35.169998 51.150002 4294902015
61.630001 35.450001 51.18 4294902015
61.619999 35.82 51.130001 4294902015
61.610001 36.169998 51.110001 4294902015
61.599998 36.630001 50.970001 4294902015
61.580002 36.77 51.16 4294902015
61.59 34.59 50.23 4294902015
61.57 34.790001 50.34 4294902015
61.560001 35.07 50.380001 4294902015
61.540001 34.950001 50.829998 4294902015
61.52 35.029999 51.060001 4294902015
61.509998 35.279999 51.139999 4294902015
61.5 35.560001 51.189999 4294902015
61.48 35.880001 51.189999 4294902015
61.470001 36.41 50.98 4294902015
61.459999 36.709999 51 4294902015
61.450001 36.860001 51.18 4294902015
61.34 34.66 50.27 4294902015
61.330002 34.880001 50.369999 4294902015
61.32 35.200001 50.369999 4294902015
61.299999 35.080002 50.82 4294902015
61.279999 35.259998 50.950001 4294902015
61.27 35.450001 51.079998 4294902015
61.259998 35.700001 51.150002 4294902015
61.25 36.209999 50.98 4294902015
61.240002 36.59 50.919998 4294902015
61.220001 36.759998 51.060001 4294902015
61.209999 37 51.150002 4294902015
61.09 34.799999 50.360001 4294902015
61.07 35.110001 50.360001 4294902015
61.060001 35.209999 50.579998 4294902015
61.040001 35.07 51.040001 4294902015
61.029999 35.34 51.079998 4294902015
61.009998 35.619999 51.139999 4294902015
61.009998 36.630001 50.459999 4294902015
60.990002 36.529999 50.889999 4294902015
60.98 36.790001 50.950001 4294902015
60.959999 36.91 51.150002 4294902015
61.18 34.73 50.34 4294902015
61.169998 35.060001 50.32 4294902015
61.16 35.240002 50.470001 4294902015
61.139999 35.119999 50.919998 4294902015
61.119999 35.349998 51.009998 4294902015
61.110001 35.549999 51.119999 4294902015
61.110001 36.27 50.720001 4294902015
61.09 36.529999 50.790001 4294902015
61.080002 36.779999 50.860001 4294902015
61.060001 36.869999 51.099998 4294902015
61.07 34.709999 50.32 4294902015
61.049999 35.009998 50.349998 4294902015
61.040001 35.189999 50.489998 4294902015
61.02 35.060001 50.939999 4294902015
61.009998 35.32 50.989998 4294902015
60.990002 35.549999 51.079998 4294902015
60.98 35.849998 51.099998 4294902015
60.970001 36.580002 50.700001 4294902015
60.959999 36.720001 50.900002 4294902015
60.939999 36.91 51.040001 4294902015
60.98 34.77 50.32 4294902015
60.970001 35.049999 50.360001 4294902015
60.950001 35.18 50.560001 4294902015
60.93 35.099998 50.950001 4294902015
60.919998 35.310001 51.060001 4294902015
60.900002 35.650002 51.060001 4294902015
60.900002 36.389999 50.650002 4294902015
60.880001 36.639999 50.709999 4294902015
60.869999 36.709999 50.950001 4294902015
60.860001 36.990002 51 4294902015
60.869999 34.73 50.329998 4294902015
60.860001 35.029999 50.34 4294902015
60.84 35.259998 50.419998 4294902015
60.82 35.099998 50.91 4294902015
60.810001 35.16 51.16 4294902015
60.799999 35.639999 51.009998 4294902015
60.790001 36.369999 50.610001 4294902015
60.779999 36.830002 50.470001 4294902015
60.759998 36.700001 50.919998 4294902015
60.75 36.91 51.029999 4294902015
60.68 34.759998 50.279999 4294902015
60.66 35 50.380001 4294902015
60.650002 35.23 50.470001 4294902015
60.630001 35.09 50.93 4294902015
60.610001 35.240002 51.110001 4294902015
60.599998 35.57 51.099998 4294902015
60.599998 36.59 50.400002 4294902015
60.59 36.57 50.73 4294902015
60.57 36.619999 51.009998 4294902015
60.549999 36.860001 51.09 4294902015
60.540001 37.18 51.099998 4294902015
60.299999 34.759998 50.25 4294902015
60.290001 34.950001 50.380001 4294902015
60.279999 35.27 50.389999 4294902015
60.259998 35.25 50.73 4294902015
60.25 35.34 50.959999 4294902015
60.240002 35.84 50.790001 4294902015
60.220001 36.049999 50.900002 4294902015
60.209999 36.509998 50.759998 4294902015
60.200001 36.619999 50.970001 4294902015
60.18 36.77 51.139999 4294902015
60.169998 37.099998 51.139999 4294902015
60.130001 34.880001 50.349998 4294902015
60.119999 35.169998 50.389999 4294902015
60.110001 35.299999 50.579998 4294902015
60.09 35.459999 50.739998 4294902015
60.080002 35.75 50.759998 4294902015
60.07 35.84 51 4294902015
60.060001 36.310001 50.849998 4294902015
60.049999 36.740002 50.75 4294902015
60.029999 36.84 50.98 4294902015
60.02 37.040001 51.119999 4294902015
60.43 34.82 50.290001 4294902015
60.419998 35.07 50.360001 4294902015
60.400002 35.16 50.610001 4294902015
60.389999 35.169998 50.91 4294902015
60.369999 35.34 51.049999 4294902015
60.369999 36.040001 50.689999 4294902015
60.360001 36.459999 50.579998 4294902015
60.34 36.57 50.799999 4294902015
60.32 36.619999 51.079998 4294902015
60.310001 36.970001 51.060001 4294902015
60.299999 37.209999 51.139999 4294902015
60.639999 34.799999 50.369999 4294902015
60.630001 35.130001 50.360001 4294902015
60.610001 35.150002 50.66 4294902015
60.59 35.099998 51.029999 4294902015
60.580002 35.41 51.040001 4294902015
60.580002 36.119999 50.66 4294902015
60.57 36.639999 50.48 4294902015
60.549999 36.619999 50.810001 4294902015
60.529999 36.669998 51.07 4294902015
60.52 37 51.079998 4294902015
60.16 34.810001 50.299999 4294902015
60.150002 35.060001 50.360001 4294902015
60.130001 35.32 50.419998 4294902015
60.119999 35.240002 50.82 4294902015
60.099998 35.580002 50.799999 4294902015
60.09 35.720001 50.98 4294902015
60.07 35.889999 51.139999 4294902015
60.060001 36.490002 50.869999 4294902015
60.049999 36.599998 51.079998 4294902015
60.040001 37 50.989998 4294902015
60.02 37.150002 51.18 4294902015
59.509998 34.93 50.290001 4294902015
59.5 35.130001 50.41 4294902015
59.490002 35.380001 50.470001 4294902015
59.470001 35.490002 50.689999 4294902015
59.459999 35.619999 50.880001 4294902015
59.439999 35.740002 51.079998 4294902015
59.439999 36.419998 50.739998 4294902015
59.419998 36.509998 50.970001 4294902015
59.41 36.82 50.98 4294902015
59.400002 37.130001 50.989998 4294902015
59.139999 34.990002 50.369999 4294902015
59.130001 35.279999 50.400002 4294902015
59.119999 35.5 50.5 4294902015
59.099998 35.560001 50.779999 4294902015
59.09 35.59 51.07 4294902015
59.080002 36.060001 50.919998 4294902015
59.07 36.369999 50.93 4294902015
59.049999 36.540001 51.079998 4294902015
59.040001 36.849998 51.09 4294902015
59.029999 37.16 51.119999 4294902015
59.48 34.880001 50.299999 4294902015
59.470001 35.110001 50.380001 4294902015
59.450001 35.389999 50.43 4294902015
59.439999 35.459999 50.68 4294902015
59.419998 35.610001 50.869999 4294902015
59.41 35.68 51.110001 4294902015
59.400002 36.200001 50.91 4294902015
59.389999 36.540001 50.900002 4294902015
59.369999 36.75 51.009998 4294902015
59.360001 37.07 51.02 4294902015
59.369999 34.919998 50.290001 4294902015
59.360001 35.139999 50.389999 4294902015
59.349998 35.419998 50.439999 4294902015
59.330002 35.369999 50.799999 4294902015
59.310001 35.57 50.91 4294902015
59.299999 35.68 51.130001 4294902015
59.290001 36.040001 51.09 4294902015
59.27 36.41 51.049999 4294902015
59.259998 36.93 50.869999 4294902015
59.25 37.099998 51.029999 4294902015
59.23 37.34 51.110001 4294902015
59.009998 34.959999 50.27 4294902015
59 35.130001 50.43 4294902015
58.98 35.450001 50.419998 4294902015
58.970001 35.419998 50.77 4294902015
58.950001 35.59 50.93 4294902015
58.939999 35.970001 50.880001 4294902015
58.919998 36.240002 50.93 4294902015
58.91 36.32 51.16 4294902015
58.889999 36.68 51.130001 4294902015
58.880001 36.990002 51.139999 4294902015
58.869999 37.34 51.119999 4294902015
58.41 35.09 50.389999 4294902015
58.400002 35.310001 50.48 4294902015
58.380001 35.450001 50.669998 4294902015
58.369999 35.470001 50.959999 4294902015
58.349998 35.740002 51.02 4294902015
58.34 36.049999 51.040001 4294902015
58.330002 36.299999 51.119999 4294902015
58.310001 36.650002 51.09 4294902015
58.299999 36.959999 51.099998 4294902015
58.290001 37.240002 51.150002 4294902015
58.330002 35.099998 50.400002 4294902015
58.310001 35.290001 50.529999 4294902015
58.299999 35.439999 50.709999 4294902015
58.279999 35.509998 50.939999 4294902015
58.27 35.73 51.049999 4294902015
58.259998 36.099998 51 4294902015
58.240002 36.290001 51.139999 4294902015
58.23 36.669998 51.099998 4294902015
58.220001 37.080002 51.02 4294902015
58.209999 37.41 51.009998 4294902015
58.419998 35.040001 50.279999 4294902015
58.41 35.220001 50.43 4294902015
58.389999 35.439999 50.52 4294902015
58.380001 35.439999 50.849998 4294902015
58.360001 35.639999 50.98 4294902015
58.349998 35.869999 51.07 4294902015
58.34 36.110001 51.150002 4294902015
58.32 36.439999 51.130001 4294902015
58.310001 36.82 51.09 4294902015
58.299999 37.099998 51.130001 4294902015
58.380001 35.189999 50.459999 4294902015
58.360001 35.369999 50.59 4294902015
58.349998 35.439999 50.84 4294902015
58.330002 35.619999 50.98 4294902015
58.32 35.799999 51.119999 4294902015
58.299999 36.110001 51.139999 4294902015
58.290001 36.470001 51.110001 4294902015
58.279999 36.849998 51.060001 4294902015
58.259998 37.099998 51.130001 4294902015
58.09 35.099998 50.34 4294902015
58.080002 35.310001 50.459999 4294902015
58.060001 35.310001 50.790001 4294902015
58.049999 35.580002 50.84 4294902015
58.029999 35.73 51 4294902015
58.02 36 51.049999 4294902015
58 36.330002 51.060001 4294902015
57.990002 36.630001 51.07 4294902015
57.98 36.98 51.049999 4294902015
57.869999 35.110001 50.329998 4294902015
57.860001 35.34 50.43 4294902015
57.84 35.290001 50.790001 4294902015
57.830002 35.599998 50.810001 4294902015
57.810001 35.860001 50.880001 4294902015
57.799999 35.950001 51.110001 4294902015
57.790001 36.23 51.150002 4294902015
57.779999 36.66 51.040001 4294902015
57.759998 37.040001 51 4294902015
57.740002 35.150002 50.41 4294902015
57.73 35.360001 50.52 4294902015
57.709999 35.389999 50.810001 4294902015
57.700001 35.709999 50.810001 4294902015
57.689999 35.91 50.93 4294902015
57.669998 36.040001 51.139999 4294902015
57.560001 35.220001 50.470001 4294902015
57.810001 37.439999 50.98 4294902015
57.75 37.060001 50.989998 4294902015
58.27 37.25 51.060001 4294902015
58.209999 36.889999 51.049999 4294902015
58.139999 36.450001 51.119999 4294902015
58.09 36.139999 51.09 4294902015
58.049999 35.990002 50.919998 4294902015
58.009998 35.720001 50.84 4294902015
57.959999 35.459999 50.759998 4294902015
57.93 35.330002 50.549999 4294902015
57.889999 35.139999 50.400002 4294902015
58.099998 37.240002 51.029999 4294902015
58.040001 36.900002 51.02 4294902015
57.98 36.5 51.060001 4294902015
57.91 36.029999 51.150002 4294902015
57.869999 35.880001 50.970001 4294902015
57.84 35.720001 50.799999 4294902015
57.779999 35.389999 50.790001 4294902015
57.759998 35.34 50.509998 4294902015
57.720001 35.189999 50.329998 4294902015
57.959999 37.240002 51.110001 4294902015
57.91 36.959999 51.040001 4294902015
57.84 36.490002 51.139999 4294902015
57.779999 36.139999 51.139999 4294902015
57.73 35.889999 51.060001 4294902015
57.709999 35.810001 50.799999 4294902015
57.639999 35.41 50.849998 4294902015
57.619999 35.360001 50.57 4294902015
57.580002 35.200001 50.389999 4294902015
58.040001 37.07 51.060001 4294902015
57.98 36.639999 51.119999 4294902015
57.919998 36.27 51.139999 4294902015
57.869999 36.029999 51.040001 4294902015
57.84 35.91 50.829998 4294902015
57.779999 35.540001 50.849998 4294902015
57.740002 35.360001 50.689999 4294902015
57.709999 35.25 50.459999 4294902015
58.650002 37.41 51.150002 4294902015
58.59 37.049999 51.150002 4294902015
58.52 36.650002 51.189999 4294902015
58.470001 36.360001 51.139999 4294902015
58.43 36.139999 51.02 4294902015
58.360001 35.68 51.130001 4294902015
58.330002 35.599998 50.880001 4294902015
58.290001 35.369999 50.77 4294902015
58.27 35.290001 50.509998 4294902015
58.220001 35.080002 50.389999 4294902015
59.349998 37.200001 51.099998 4294902015
59.299999 36.939999 51.009998 4294902015
59.23 36.540001 51.049999 4294902015
59.18 36.27 50.970001 4294902015
59.119999 35.900002 50.989998 4294902015
59.060001 35.509998 51.029999 4294902015
59.040001 35.490002 50.73 4294902015
59.029999 35.490002 50.41 4294902015
58.970001 35.110001 50.43 4294902015
59.25 36.93 51.07 4294902015
59.209999 36.689999 50.959999 4294902015
59.139999 36.279999 51.009998 4294902015
59.080002 35.93 51.009998 4294902015
59.009998 35.5 51.09 4294902015
58.98 35.419998 50.84 4294902015
58.990002 35.580002 50.380001 4294902015
58.93 35.220001 50.389999 4294902015
58.880001 34.959999 50.299999 4294902015
58.810001 37.169998 51.220001 4294902015
58.759998 36.950001 51.09 4294902015
58.700001 36.580002 51.099998 4294902015
58.639999 36.220001 51.09 4294902015
58.59 35.970001 51.009998 4294902015
58.540001 35.66 50.98 4294902015
58.490002 35.470001 50.82 4294902015
58.48 35.529999 50.459999 4294902015
58.43 35.23 50.41 4294902015
58.52 37.41 51.189999 4294902015
58.459999 37.080002 51.169998 4294902015
58.41 36.759998 51.150002 4294902015
58.349998 36.389999 51.16 4294902015
58.290001 36.060001 51.150002 4294902015
58.23 35.73 51.110001 4294902015
58.18 35.5 51 4294902015
58.150002 35.389999 50.779999 4294902015
58.119999 35.32 50.52 4294902015
58.080002 35.139999 50.380001 4294902015
58.779999 37.389999 51.139999 4294902015
58.720001 37.009998 51.150002 4294902015
58.66 36.650002 51.169998 4294902015
58.599998 36.32 51.139999 4294902015
58.549999 36.07 51.040001 4294902015
58.5 35.790001 50.970001 4294902015
58.459999 35.59 50.84 4294902015
58.419998 35.450001 50.66 4294902015
58.389999 35.369999 50.41 4294902015
58.34 35.060001 50.369999 4294902015
59.16 37.34 51.130001 4294902015
59.119999 37.16 50.959999 4294902015
59.029999 36.599998 51.150002 4294902015
58.98 36.380001 51.040001 4294902015
58.939999 36.18 50.889999 4294902015
58.889999 35.900002 50.84 4294902015
58.82 35.48 50.900002 4294902015
58.810001 35.549999 50.52 4294902015
58.77 35.330002 50.389999 4294902015
58.720001 35.080002 50.310001 4294902015
58.91 37.41 51.139999 4294902015
58.84 36.990002 51.189999 4294902015
58.790001 36.68 51.150002 4294902015
58.720001 36.290001 51.189999 4294902015
58.68 36.16 50.989998 4294902015
58.619999 35.790001 51.009998 4294902015
58.580002 35.580002 50.880001 4294902015
58.560001 35.59 50.549999 4294902015
58.509998 35.380001 50.41 4294902015
58.459999 35.09 50.369999 4294902015
58.25 37.27 51.040001 4294902015
58.189999 36.91 51.040001 4294902015
58.119999 36.5 51.09 4294902015
58.060001 36.139999 51.110001 4294902015
58.02 35.939999 50.959999 4294902015
57.970001 35.709999 50.849998 4294902015
57.91 35.41 50.799999 4294902015
57.880001 35.349998 50.549999 4294902015
57.830002 35.099998 50.470001 4294902015
57.869999 37.009998 51.040001 4294902015
57.810001 36.610001 51.07 4294902015
57.740002 36.209999 51.110001 4294902015
57.68 35.889999 51.09 4294902015
57.650002 35.830002 50.829998 4294902015
57.59 35.459999 50.84 4294902015
57.560001 35.360001 50.619999 4294902015
58.16 37.23 51.119999 4294902015
58.110001 37.009998 51.009998 4294902015
58.040001 36.599998 51.049999 4294902015
57.970001 36.119999 51.16 4294902015
57.93 35.939999 51 4294902015
57.889999 35.759998 50.849998 4294902015
57.830002 35.43 50.84 4294902015
57.799999 35.349998 50.59 4294902015
57.759998 35.16 50.439999 4294902015
58.34 37.259998 51.239998 4294902015
58.290001 37.029999 51.119999 4294902015
58.23 36.689999 51.110001 4294902015
58.16 36.27 51.169998 4294902015
58.110001 35.950001 51.130001 4294902015
58.060001 35.740002 51 4294902015
58.02 35.560001 50.849998 4294902015
57.98 35.299999 50.779999 4294902015
57.959999 35.34 50.41 4294902015
57.91 35.110001 50.310001 4294902015
58.119999 37.290001 51.119999 4294902015
58.07 37.049999 51.02 4294902015
58.009998 36.610001 51.09 4294902015
57.950001 36.240002 51.110001 4294902015
57.889999 35.959999 51.049999 4294902015
57.860001 35.860001 50.810001 4294902015
57.799999 35.5 50.829998 4294902015
57.759998 35.349998 50.650002 4294902015
57.720001 35.220001 50.43 4294902015
58.200001 37.25 51.119999 4294902015
58.139999 36.93 51.09 4294902015
58.09 36.650002 51.029999 4294902015
58.02 36.110001 51.189999 4294902015
57.98 35.939999 51.029999 4294902015
57.939999 35.799999 50.829998 4294902015
57.880001 35.419998 50.849998 4294902015
57.849998 35.389999 50.560001 4294902015
57.82 35.209999 50.400002 4294902015
58.830002 37.029999 51.200001 4294902015
58.77 36.669998 51.200001 4294902015
58.709999 36.32 51.200001 4294902015
58.68 36.169998 51.009998 4294902015
58.619999 35.82 51 4294902015
58.57 35.52 50.950001 4294902015
58.560001 35.599998 50.560001 4294902015
58.509998 35.380001 50.450001 4294902015
58.459999 35.09 50.389999 4294902015
59.040001 37.220001 51.18 4294902015
58.990002 37 51.060001 4294902015
58.919998 36.490002 51.189999 4294902015
58.869999 36.25 51.09 4294902015
58.830002 36.009998 51 4294902015
58.779999 35.720001 50.939999 4294902015
58.740002 35.580002 50.759998 4294902015
58.720001 35.560001 50.450001 4294902015
58.669998 35.259998 50.400002 4294902015
58.619999 35.029999 50.279999 4294902015
58.970001 37.27 51.200001 4294902015
58.93 37.07 51.060001 4294902015
58.860001 36.59 51.16 4294902015
58.799999 36.279999 51.130001 4294902015
58.77 36.139999 50.939999 4294902015
58.709999 35.799999 50.93 4294902015
58.66 35.52 50.869999 4294902015
58.66 35.68 50.400002 4294902015
58.599998 35.349998 50.369999 4294902015
58.549999 35.02 50.360001 4294902015
59.169998 37.259998 51.09 4294902015
59.119999 36.93 51.060001 4294902015
59.049999 36.509998 51.110001 4294902015
59.009998 36.310001 50.970001 4294902015
58.970001 36.09 50.860001 4294902015
58.900002 35.619999 50.970001 4294902015
58.869999 35.52 50.75 4294902015
58.849998 35.529999 50.41 4294902015
58.790001 35.169998 50.419998 4294902015
58.75 34.959999 50.279999 4294902015
59.75 36.599998 51.349998 4294902015
59.619999 35.860001 51.060001 4294902015
