# .PCD v0.7 - Point Cloud Data file format
VERSION 0.7
FIELDS x y z rgb
SIZE 4 4 4 4
TYPE F F F U
COUNT 1 1 1 1
WIDTH 1271
HEIGHT 1
VIEWPOINT 0 0 0 1 0 0 0
POINTS 1271
DATA ascii
52.990002 37.740002 50.950001 4286578943
53 37.889999 50.829998 4286578943
52.990002 38.060001 50.849998 4286578943
53 38.189999 50.529999 4286578943
52.950001 35.849998 50.989998 4286578943
52.91 36.110001 51.669998 4286578943
52.900002 36.290001 51.790001 4286578943
52.900002 36.450001 51.720001 4286578943
52.889999 36.619999 51.860001 4286578943
52.880001 36.790001 51.939999 4286578943
52.880001 36.950001 51.93 4286578943
52.869999 37.119999 51.970001 4286578943
52.869999 37.27 51.880001 4286578943
52.869999 37.419998 51.82 4286578943
52.880001 37.560001 51.650002 4286578943
52.880001 37.700001 51.459999 4286578943
52.889999 37.810001 51.09 4286578943
52.900002 37.950001 50.810001 4286578943
52.900002 38.110001 50.84 4286578943
52.41 36.07 51.630001 4286578943
52.400002 36.240002 51.779999 4286578943
52.389999 36.41 51.829998 4286578943
52.389999 36.57 51.849998 4286578943
52.380001 36.740002 51.91 4286578943
52.380001 36.91 51.950001 4286578943
52.369999 37.080002 52 4286578943
52.369999 37.240002 51.970001 4286578943
52.369999 37.380001 51.84 4286578943
52.369999 37.52 51.689999 4286578943
52.369999 37.68 51.639999 4286578943
52.380001 37.790001 51.310001 4286578943
52.389999 37.900002 50.810001 4286578943
52.389999 38.07 50.849998 4286578943
52.389999 38.200001 50.579998 4286578943
51.970001 35.900002 50.439999 4286578943
51.93 36.349998 51.380001 4286578943
52.080002 37.310001 51.66 4286578943
52.099998 37.049999 51.810001 4286578943
52.110001 36.84 51.860001 4286578943
52.110001 36.68 51.77 4286578943
52.119999 36.52 51.709999 4286578943
52.119999 36.369999 51.599998 4286578943
52.110001 36.279999 51.369999 4286578943
52.09 36.310001 50.880001 4286578943
52.09 36.119999 50.860001 4286578943
52.080002 36.060001 50.560001 4286578943
52.09 35.889999 50.509998 4286578943
52.43 37.84 51.610001 4286578943
52.450001 37.599998 51.720001 4286578943
52.470001 37.279999 52.009998 4286578943
52.48 37.07 52.049999 4286578943
52.470001 37 51.779999 4286578943
52.490002 36.73 51.939999 4286578943
52.48 36.610001 51.779999 4286578943
52.490002 36.400002 51.82 4286578943
52.5 36.23 51.790001 4286578943
52.5 36.099998 51.650002 4286578943
52.490002 36.040001 51.34 4286578943
52.470001 36.049999 50.849998 4286578943
52.450001 36 50.52 4286578943
52.459999 35.830002 50.450001 4286578943
52.52 37.919998 51.560001 4286578943
52.540001 37.599998 51.860001 4286578943
52.560001 37.330002 52.02 4286578943
52.57 37.130001 52.040001 4286578943
52.57 37 51.880001 4286578943
52.580002 36.779999 51.950001 4286578943
52.580002 36.630001 51.84 4286578943
52.59 36.43 51.880001 4286578943
52.59 36.279999 51.790001 4286578943
52.59 36.139999 51.650002 4286578943
52.59 36.029999 51.470001 4286578943
52.560001 36.09 50.869999 4286578943
52.549999 36.02 50.579998 4286578943
52.560001 35.849998 50.529999 4286578943
52.41 37.759998 51.739998 4286578943
52.419998 37.57 51.73 4286578943
52.439999 37.240002 52.02 4286578943
52.450001 37.060001 52.02 4286578943
52.450001 36.900002 51.93 4286578943
52.459999 36.709999 51.919998 4286578943
52.470001 36.52 51.900002 4286578943
52.470001 36.369999 51.82 4286578943
52.470001 36.209999 51.75 4286578943
52.470001 36.080002 51.599998 4286578943
52.459999 36.080002 51.18 4286578943
52.439999 36.029999 50.829998 4286578943
52.439999 35.959999 50.540001 4286578943
52.439999 35.810001 50.41 4286578943
52.529999 37.98 51.43 4286578943
52.560001 37.599998 51.84 4286578943
52.580002 37.32 52.009998 4286578943
52.59 37.119999 52.02 4286578943
52.59 36.990002 51.889999 4286578943
52.599998 36.790001 51.93 4286578943
52.599998 36.630001 51.860001 4286578943
52.610001 36.450001 51.849998 4286578943
52.610001 36.27 51.790001 4286578943
52.610001 36.130001 51.669998 4286578943
52.610001 36.02 51.489998 4286578943
52.580002 36.099998 50.860001 4286578943
52.580002 36.009998 50.630001 4286578943
52.580002 35.849998 50.529999 4286578943
52.810001 37.790001 51.610001 4286578943
52.84 37.48 51.880001 4286578943
52.849998 37.240002 52 4286578943
52.860001 37.029999 52.02 4286578943
52.869999 36.849998 52.009998 4286578943
52.869999 36.709999 51.889999 4286578943
52.869999 36.549999 51.799999 4286578943
52.869999 36.41 51.68 4286578943
52.880001 36.209999 51.720001 4286578943
52.880001 36.07 51.59 4286578943
52.869999 35.970001 51.400002 4286578943
52.849998 36.02 50.829998 4286578943
52.84 35.959999 50.5 4286578943
52.849998 35.77 50.5 4286578943
52.950001 37.939999 51.139999 4286578943
53 37.439999 51.810001 4286578943
53 37.259998 51.77 4286578943
53.02 37.009998 51.900002 4286578943
53.029999 36.799999 51.950001 4286578943
53.02 36.709999 51.73 4286578943
53.029999 36.509998 51.739998 4286578943
53.029999 36.349998 51.689999 4286578943
53.029999 36.18 51.619999 4286578943
53.040001 36.040001 51.5 4286578943
53.009998 36.130001 50.84 4286578943
53.009998 35.959999 50.779999 4286578943
53 35.889999 50.5 4286578943
53 35.73 50.419998 4286578943
52.849998 37.950001 51.290001 4286578943
52.889999 37.52 51.82 4286578943
52.91 37.25 51.989998 4286578943
52.91 37.060001 51.989998 4286578943
52.919998 36.880001 51.970001 4286578943
52.919998 36.720001 51.900002 4286578943
52.93 36.560001 51.810001 4286578943
52.93 36.400002 51.73 4286578943
52.93 36.23 51.68 4286578943
52.93 36.080002 51.59 4286578943
52.93 35.990002 51.349998 4286578943
52.900002 36.009998 50.849998 4286578943
52.889999 35.959999 50.52 4286578943
52.900002 35.779999 50.5 4286578943
52.470001 37.73 51.75 4286578943
52.490002 37.459999 51.919998 4286578943
52.5 37.23 52.009998 4286578943
52.509998 37.049999 52 4286578943
52.52 36.869999 51.959999 4286578943
52.52 36.700001 51.919998 4286578943
52.52 36.52 51.880001 4286578943
52.529999 36.34 51.849998 4286578943
52.529999 36.189999 51.73 4286578943
52.529999 36.07 51.59 4286578943
52.5 36.130001 51.009998 4286578943
52.490002 36.02 50.810001 4286578943
52.48 35.950001 50.509998 4286578943
52.48 35.810001 50.389999 4286578943
52.470001 37.84 51.630001 4286578943
52.490002 37.560001 51.84 4286578943
52.509998 37.279999 52.029999 4286578943
52.52 37.080002 52.060001 4286578943
52.509998 37.009998 51.759998 4286578943
52.529999 36.75 51.93 4286578943
52.529999 36.59 51.84 4286578943
52.540001 36.389999 51.860001 4286578943
52.540001 36.25 51.759998 4286578943
52.540001 36.110001 51.639999 4286578943
52.529999 36.02 51.41 4286578943
52.509998 36.049999 50.869999 4286578943
52.490002 36 50.529999 4286578943
52.5 35.830002 50.48 4286578943
52.950001 38.080002 50.959999 4286578943
53.009998 37.509998 51.779999 4286578943
53.029999 37.299999 51.829998 4286578943
53.040001 37.060001 51.93 4286578943
53.049999 36.860001 51.950001 4286578943
53.049999 36.720001 51.84 4286578943
53.049999 36.560001 51.759998 4286578943
53.060001 36.41 51.669998 4286578943
53.060001 36.259998 51.57 4286578943
53.07 36.080002 51.560001 4286578943
53.029999 36.189999 50.860001 4286578943
53.040001 36.009998 50.82 4286578943
53.029999 35.93 50.529999 4286578943
53.040001 35.75 50.52 4286578943
53.599998 37.970001 50.889999 4286578943
53.610001 37.75 50.939999 4286578943
53.639999 37.439999 51.200001 4286578943
53.639999 37.27 51.150002 4286578943
53.639999 37.099998 51.099998 4286578943
53.650002 36.959999 50.989998 4286578943
53.66 36.740002 51.049999 4286578943
53.669998 36.52 51.110001 4286578943
53.68 36.32 51.119999 4286578943
53.669998 36.23 50.869999 4286578943
53.68 36.060001 50.84 4286578943
53.68 35.869999 50.82 4286578943
53.669998 35.82 50.489998 4286578943
53.68 35.66 50.41 4286578943
53.220001 38.09 50.790001 4286578943
53.240002 37.759998 51.079998 4286578943
53.290001 37.32 51.619999 4286578943
53.299999 37.060001 51.77 4286578943
53.310001 36.900002 51.709999 4286578943
53.310001 36.720001 51.689999 4286578943
53.32 36.549999 51.630001 4286578943
53.310001 36.450001 51.439999 4286578943
53.32 36.279999 51.380001 4286578943
53.290001 36.330002 50.799999 4286578943
53.299999 36.099998 50.869999 4286578943
53.299999 35.939999 50.810001 4286578943
53.299999 35.869999 50.540001 4286578943
53.290001 35.73 50.389999 4286578943
52.25 38.150002 50.919998 4286578943
52.32 37.599998 51.700001 4286578943
52.34 37.290001 51.959999 4286578943
52.360001 37.07 52.029999 4286578943
52.360001 36.939999 51.91 4286578943
52.360001 36.759998 51.860001 4286578943
52.349998 36.66 51.66 4286578943
52.369999 36.400002 51.82 4286578943
52.380001 36.240002 51.739998 4286578943
52.369999 36.130001 51.540001 4286578943
52.34 36.169998 51.009998 4286578943
52.34 36.040001 50.860001 4286578943
52.32 35.990002 50.52 4286578943
52.32 35.84 50.43 4286578943
51.98 36.830002 51.599998 4286578943
51.98 36.68 51.48 4286578943
51.970001 36.549999 51.349998 4286578943
51.98 36.389999 51.290001 4286578943
51.959999 36.349998 50.939999 4286578943
51.959999 36.200001 50.84 4286578943
51.950001 36.09 50.630001 4286578943
51.959999 35.939999 50.529999 4286578943
52.720001 37.740002 51.759998 4286578943
52.740002 37.470001 51.93 4286578943
52.75 37.25 51.989998 4286578943
52.77 37.040001 52.049999 4286578943
52.77 36.860001 52.009998 4286578943
52.779999 36.689999 51.950001 4286578943
52.779999 36.529999 51.869999 4286578943
52.779999 36.389999 51.759998 4286578943
52.790001 36.209999 51.75 4286578943
52.790001 36.07 51.619999 4286578943
52.790001 35.970001 51.400002 4286578943
52.759998 36.02 50.829998 4286578943
52.75 35.950001 50.549999 4286578943
52.75 35.790001 50.459999 4286578943
53.610001 38.040001 50.849998 4286578943
53.619999 37.84 50.860001 4286578943
53.650002 37.52 51.139999 4286578943
53.66 37.299999 51.189999 4286578943
53.669998 37.150002 51.099998 4286578943
53.669998 36.990002 51.029999 4286578943
53.68 36.77 51.09 4286578943
53.700001 36.529999 51.200001 4286578943
53.700001 36.380001 51.119999 4286578943
53.689999 36.310001 50.810001 4286578943
53.700001 36.099998 50.849998 4286578943
53.709999 35.91 50.849998 4286578943
53.700001 35.849998 50.549999 4286578943
53.700001 35.68 50.489998 4286578943
53.439999 37.919998 50.84 4286578943
53.459999 37.630001 51.079998 4286578943
53.490002 37.299999 51.360001 4286578943
53.5 37.119999 51.34 4286578943
53.509998 36.860001 51.470001 4286578943
53.52 36.709999 51.400002 4286578943
53.509998 36.630001 51.139999 4286578943
53.52 36.419998 51.169998 4286578943
53.52 36.299999 51.02 4286578943
53.52 36.16 50.880001 4286578943
53.52 35.970001 50.869999 4286578943
53.509998 35.889999 50.599998 4286578943
53.509998 35.740002 50.5 4286578943
52.549999 37.639999 51.849998 4286578943
52.57 37.369999 52.029999 4286578943
52.580002 37.169998 52.040001 4286578943
52.59 37.009998 51.959999 4286578943
52.599998 36.810001 51.959999 4286578943
52.59 36.68 51.829998 4286578943
52.599998 36.490002 51.829998 4286578943
52.610001 36.299999 51.829998 4286578943
52.610001 36.169998 51.689999 4286578943
52.599998 36.060001 51.489998 4286578943
52.560001 36.139999 50.849998 4286578943
52.549999 36.02 50.669998 4286578943
52.549999 35.889999 50.529999 4286578943
52.150002 38.139999 50.91 4286578943
52.23 37.619999 51.639999 4286578943
52.25 37.34 51.84 4286578943
52.27 37.099998 51.939999 4286578943
52.279999 36.900002 51.939999 4286578943
52.279999 36.75 51.829998 4286578943
52.279999 36.630001 51.689999 4286578943
52.299999 36.41 51.759998 4286578943
52.299999 36.25 51.669998 4286578943
52.279999 36.189999 51.360001 4286578943
52.25 36.200001 50.889999 4286578943
52.25 36.049999 50.779999 4286578943
52.240002 35.959999 50.529999 4286578943
52.240002 35.830002 50.400002 4286578943
53.169998 38.130001 50.799999 4286578943
53.200001 37.82 51.060001 4286578943
53.259998 37.360001 51.669998 4286578943
53.279999 37.110001 51.799999 4286578943
53.290001 36.91 51.799999 4286578943
53.290001 36.799999 51.619999 4286578943
53.290001 36.619999 51.599998 4286578943
53.299999 36.439999 51.560001 4286578943
53.299999 36.310001 51.419998 4286578943
53.279999 36.310001 50.98 4286578943
53.279999 36.169998 50.869999 4286578943
53.290001 35.990002 50.829998 4286578943
53.279999 35.93 50.52 4286578943
53.290001 35.740002 50.509998 4286578943
54.709999 37.209999 51.18 4286578943
54.709999 37.07 51.07 4286578943
54.709999 36.91 50.98 4286578943
54.709999 36.779999 50.829998 4286578943
54.709999 36.66 50.650002 4286578943
54.720001 36.490002 50.610001 4286578943
54.740002 36.220001 50.810001 4286578943
54.75 36.049999 50.75 4286578943
54.759998 35.82 50.84 4286578943
54.75 35.779999 50.489998 4286578943
54.759998 35.580002 50.489998 4286578943
54.900002 37.75 50.900002 4286578943
54.91 37.580002 50.849998 4286578943
54.939999 36.900002 51.060001 4286578943
54.93 36.84 50.73 4286578943
54.93 36.77 50.450001 4286578943
54.939999 36.5 50.639999 4286578943
54.959999 36.240002 50.799999 4286578943
54.970001 36.040001 50.82 4286578943
54.98 35.849998 50.829998 4286578943
54.970001 35.77 50.560001 4286578943
54.970001 35.610001 50.470001 4286578943
53.98 37.919998 50.900002 4286578943
53.990002 37.720001 50.93 4286578943
54.029999 37.209999 51.18 4286578943
54.029999 37.029999 51.130001 4286578943
54.009998 37.029999 50.709999 4286578943
54.040001 36.709999 51.02 4286578943
54.049999 36.48 51.079998 4286578943
54.049999 36.360001 50.93 4286578943
54.049999 36.200001 50.84 4286578943
54.060001 36 50.84 4286578943
54.07 35.82 50.82 4286578943
54.060001 35.75 50.529999 4286578943
54.060001 35.630001 50.369999 4286578943
53.209999 38.060001 50.84 4286578943
53.259998 37.68 51.25 4286578943
53.299999 37.330002 51.599998 4286578943
53.32 37.049999 51.790001 4286578943
53.32 36.900002 51.689999 4286578943
53.330002 36.709999 51.709999 4286578943
53.34 36.549999 51.630001 4286578943
53.330002 36.43 51.470001 4286578943
53.330002 36.299999 51.310001 4286578943
53.299999 36.32 50.799999 4286578943
53.310001 36.099998 50.880001 4286578943
53.32 35.939999 50.799999 4286578943
53.299999 35.880001 50.509998 4286578943
53.299999 35.73 50.400002 4286578943
54.060001 37.959999 50.869999 4286578943
54.07 37.759998 50.900002 4286578943
54.099998 37.419998 51.220001 4286578943
54.110001 37.25 51.18 4286578943
54.119999 37.049999 51.18 4286578943
54.119999 36.950001 50.970001 4286578943
54.130001 36.709999 51.07 4286578943
54.130001 36.57 50.959999 4286578943
54.150002 36.32 51.09 4286578943
54.150002 36.23 50.84 4286578943
54.16 36.040001 50.849998 4286578943
54.169998 35.84 50.869999 4286578943
54.150002 35.799999 50.5 4286578943
54.16 35.619999 50.470001 4286578943
55.529999 37.860001 50.84 4286578943
55.549999 37.650002 50.880001 4286578943
55.560001 37.43 50.950001 4286578943
55.580002 37.150002 51.139999 4286578943
55.580002 36.98 51.099998 4286578943
55.580002 36.880001 50.880001 4286578943
55.599998 36.580002 51.119999 4286578943
55.599998 36.43 51.009998 4286578943
55.610001 36.25 51.009998 4286578943
55.610001 36.16 50.759998 4286578943
55.619999 35.950001 50.790001 4286578943
55.630001 35.759998 50.82 4286578943
55.619999 35.669998 50.549999 4286578943
55.630001 35.509998 50.470001 4286578943
56.049999 37.740002 50.810001 4286578943
56.060001 37.509998 50.91 4286578943
56.080002 37.240002 51.09 4286578943
56.080002 37.040001 51.099998 4286578943
56.09 36.869999 51.049999 4286578943
56.099998 36.669998 51.049999 4286578943
56.099998 36.459999 51.079998 4286578943
56.110001 36.290001 51.049999 4286578943
56.119999 36.110001 51.029999 4286578943
56.110001 36.029999 50.759998 4286578943
56.119999 35.84 50.779999 4286578943
56.130001 35.639999 50.779999 4286578943
56.119999 35.580002 50.450001 4286578943
56.119999 35.389999 50.439999 4286578943
55.07 37.82 50.860001 4286578943
55.080002 37.630001 50.869999 4286578943
55.080002 37.490002 50.720001 4286578943
55.07 37.41 50.48 4286578943
55.080002 37.209999 50.489998 4286578943
55.080002 37.009998 50.489998 4286578943
55.09 36.830002 50.450001 4286578943
55.110001 36.560001 50.619999 4286578943
55.119999 36.32 50.759998 4286578943
55.139999 36.09 50.829998 4286578943
55.139999 35.939999 50.75 4286578943
55.139999 35.799999 50.619999 4286578943
55.139999 35.650002 50.5 4286578943
55.139999 35.509998 50.380001 4286578943
54.330002 37.860001 50.829998 4286578943
54.360001 37.509998 51.16 4286578943
54.369999 37.32 51.169998 4286578943
54.369999 37.130001 51.150002 4286578943
54.380001 36.98 51.049999 4286578943
54.380001 36.790001 51.040001 4286578943
54.389999 36.580002 51.07 4286578943
54.41 36.369999 51.130001 4286578943
54.41 36.09 50.900002 4286578943
54.41 35.91 50.84 4286578943
54.41 35.790001 50.650002 4286578943
54.400002 35.66 50.5 4286578943
54.799999 36.959999 51 4286578943
54.790001 36.900002 50.709999 4286578943
54.790001 36.619999 50.470001 4286578943
54.830002 36.279999 50.810001 4286578943
54.830002 36.150002 50.66 4286578943
54.849998 35.869999 50.849998 4286578943
54.84 35.799999 50.57 4286578943
54.84 35.639999 50.5 4286578943
54.84 35.509998 50.360001 4286578943
55.830002 37.73 50.849998 4286578943
55.84 37.529999 50.889999 4286578943
55.849998 37.299999 50.970001 4286578943
55.869999 37.040001 51.110001 4286578943
55.869999 36.919998 50.970001 4286578943
55.880001 36.700001 51.029999 4286578943
55.889999 36.48 51.079998 4286578943
55.900002 36.32 51 4286578943
55.91 36.099998 51.079998 4286578943
55.900002 36.07 50.700001 4286578943
55.91 35.82 50.82 4286578943
55.919998 35.639999 50.82 4286578943
55.91 35.59 50.450001 4286578943
55.91 35.400002 50.439999 4286578943
56.290001 37.599998 50.900002 4286578943
56.299999 37.380001 50.970001 4286578943
56.32 37.130001 51.099998 4286578943
56.330002 36.93 51.119999 4286578943
56.330002 36.759998 51.07 4286578943
56.330002 36.650002 50.869999 4286578943
56.349998 36.349998 51.130001 4286578943
56.349998 36.16 51.119999 4286578943
56.349998 36.09 50.84 4286578943
56.349998 35.919998 50.799999 4286578943
56.360001 35.709999 50.84 4286578943
56.360001 35.599998 50.639999 4286578943
56.349998 35.48 50.450001 4286578943
56.349998 35.34 50.329998 4286578943
55.68 37.639999 50.869999 4286578943
55.700001 37.389999 51 4286578943
55.709999 37.150002 51.09 4286578943
55.709999 36.970001 51.07 4286578943
55.709999 36.830002 50.959999 4286578943
55.73 36.59 51.060001 4286578943
55.740002 36.380001 51.119999 4286578943
55.740002 36.23 51.02 4286578943
55.73 36.130001 50.77 4286578943
55.740002 35.919998 50.810001 4286578943
55.75 35.720001 50.84 4286578943
55.740002 35.639999 50.599998 4286578943
55.740002 35.5 50.459999 4286578943
55.740002 35.369999 50.32 4286578943
55.169998 37.810001 50.869999 4286578943
55.18 37.630001 50.84 4286578943
55.18 37.490002 50.739998 4286578943
55.169998 37.389999 50.5 4286578943
55.18 37.200001 50.509998 4286578943
55.18 37 50.5 4286578943
55.200001 36.759998 50.599998 4286578943
55.220001 36.5 50.75 4286578943
55.23 36.290001 50.82 4286578943
55.240002 36.09 50.82 4286578943
55.240002 35.91 50.799999 4286578943
55.25 35.73 50.77 4286578943
55.240002 35.650002 50.509998 4286578943
55.240002 35.48 50.439999 4286578943
55.509998 37.75 50.880001 4286578943
55.52 37.57 50.860001 4286578943
55.529999 37.330002 50.98 4286578943
55.549999 37.049999 51.16 4286578943
55.549999 36.93 51.02 4286578943
55.560001 36.709999 51.060001 4286578943
55.57 36.529999 51.040001 4286578943
55.57 36.360001 50.970001 4286578943
55.57 36.220001 50.860001 4286578943
55.580002 36.049999 50.82 4286578943
55.59 35.849998 50.829998 4286578943
55.59 35.68 50.790001 4286578943
55.580002 35.619999 50.470001 4286578943
55.580002 35.459999 50.380001 4286578943
56.5 37.599998 50.900002 4286578943
56.509998 37.41 50.919998 4286578943
56.52 37.150002 51.049999 4286578943
56.540001 36.93 51.119999 4286578943
56.540001 36.779999 51.009998 4286578943
56.540001 36.599998 50.98 4286578943
56.560001 36.369999 51.079998 4286578943
56.57 36.18 51.07 4286578943
56.549999 36.130001 50.759998 4286578943
56.57 35.91 50.799999 4286578943
56.57 35.709999 50.82 4286578943
56.580002 35.560001 50.720001 4286578943
56.57 35.48 50.450001 4286578943
56.57 35.310001 50.400002 4286578943
57.150002 37.630001 50.77 4286578943
57.16 37.400002 50.880001 4286578943
57.18 37.099998 51.110001 4286578943
57.18 36.919998 51.079998 4286578943
57.189999 36.75 51.02 4286578943
57.200001 36.549999 51.049999 4286578943
57.200001 36.400002 50.970001 4286578943
57.209999 36.139999 51.099998 4286578943
57.209999 36.02 50.950001 4286578943
57.209999 35.91 50.75 4286578943
57.220001 35.68 50.84 4286578943
57.23 35.48 50.829998 4286578943
57.220001 35.43 50.509998 4286578943
57.220001 35.259998 50.48 4286578943
56.810001 37.59 50.880001 4286578943
56.810001 37.41 50.84 4286578943
56.84 37.07 51.169998 4286578943
56.84 36.93 51.07 4286578943
56.84 36.759998 51.009998 4286578943
56.849998 36.529999 51.110001 4286578943
56.849998 36.380001 51 4286578943
56.860001 36.150002 51.09 4286578943
56.860001 36.060001 50.84 4286578943
56.860001 35.880001 50.810001 4286578943
56.869999 35.700001 50.810001 4286578943
56.869999 35.509998 50.790001 4286578943
56.860001 35.450001 50.48 4286578943
56.869999 35.279999 50.43 4286578943
56.279999 37.580002 50.880001 4286578943
56.299999 37.330002 51.009998 4286578943
56.310001 37.099998 51.110001 4286578943
56.32 36.91 51.099998 4286578943
56.330002 36.689999 51.16 4286578943
56.310001 36.639999 50.84 4286578943
56.330002 36.380001 50.989998 4286578943
56.34 36.150002 51.07 4286578943
56.330002 36.07 50.799999 4286578943
56.34 35.880001 50.810001 4286578943
56.349998 35.669998 50.84 4286578943
56.330002 35.619999 50.509998 4286578943
56.34 35.450001 50.459999 4286578943
56.330002 35.32 50.310001 4286578943
56.41 37.52 50.919998 4286578943
56.43 37.259998 51.09 4286578943
56.43 37.119999 50.959999 4286578943
56.439999 36.919998 50.98 4286578943
56.450001 36.66 51.130001 4286578943
56.439999 36.580002 50.860001 4286578943
56.450001 36.369999 50.889999 4286578943
56.470001 36.080002 51.119999 4286578943
56.459999 36.060001 50.739998 4286578943
56.470001 35.84 50.790001 4286578943
56.48 35.630001 50.84 4286578943
56.459999 35.599998 50.439999 4286578943
56.470001 35.400002 50.470001 4286578943
57.259998 37.639999 50.739998 4286578943
57.279999 37.360001 50.93 4286578943
57.299999 37.080002 51.139999 4286578943
57.290001 36.939999 50.989998 4286578943
57.310001 36.689999 51.119999 4286578943
57.310001 36.540001 51.029999 4286578943
57.32 36.32 51.099998 4286578943
57.330002 36.150002 51.07 4286578943
57.310001 36.110001 50.68 4286578943
57.32 35.889999 50.759998 4286578943
57.34 35.66 50.849998 4286578943
57.34 35.48 50.82 4286578943
57.330002 35.43 50.470001 4286578943
57.330002 35.259998 50.43 4286578943
57.48 37.599998 50.810001 4286578943
57.490002 37.369999 50.900002 4286578943
57.509998 37.119999 51.040001 4286578943
57.509998 36.939999 51 4286578943
57.52 36.759998 50.989998 4286578943
57.52 36.59 50.93 4286578943
57.529999 36.34 51.060001 4286578943
57.529999 36.23 50.860001 4286578943
57.540001 35.98 51 4286578943
57.540001 35.849998 50.869999 4286578943
57.549999 35.66 50.849998 4286578943
57.549999 35.48 50.829998 4286578943
57.540001 35.389999 50.599998 4286578943
57.73 37.580002 50.810001 4286578943
57.740002 37.380001 50.84 4286578943
57.75 37.470001 50.889999 4286578943
57.66 36.48 51.029999 4286578943
57.650002 36.900002 50.93 4286578943
57.639999 37.09 51.060001 4286578943
57.540001 35.360001 50.639999 4286578943
57.529999 35.48 50.84 4286578943
57.52 35.810001 50.829998 4286578943
57.5 35.970001 50.989998 4286578943
57.490002 36.32 50.98 4286578943
57.48 36.779999 50.849998 4286578943
57.459999 36.900002 51.049999 4286578943
57.450001 37.16 51.110001 4286578943
57.380001 35.18 50.34 4286578943
57.369999 35.400002 50.439999 4286578943
57.360001 35.360001 50.790001 4286578943
57.34 35.619999 50.860001 4286578943
57.330002 36.029999 50.759998 4286578943
57.32 36.119999 51.009998 4286578943
57.299999 36.369999 51.079998 4286578943
57.290001 36.68 51.099998 4286578943
57.279999 37.09 51.02 4286578943
57.259998 37.459999 50.959999 4286578943
57.389999 35.209999 50.389999 4286578943
57.380001 35.43 50.5 4286578943
57.360001 35.41 50.829998 4286578943
57.349998 35.689999 50.869999 4286578943
57.34 35.970001 50.919998 4286578943
57.330002 36.150002 51.049999 4286578943
57.310001 36.5 51.029999 4286578943
57.299999 36.77 51.09 4286578943
57.290001 37.099998 51.09 4286578943
57.43 35.310001 50.41 4286578943
57.41 35.380001 50.66 4286578943
57.400002 35.52 50.84 4286578943
57.380001 35.860001 50.829998 4286578943
57.369999 36.07 50.950001 4286578943
57.360001 36.279999 51.049999 4286578943
57.349998 36.619999 51.029999 4286578943
57.330002 36.970001 51.02 4286578943
57.32 37.290001 51.02 4286578943
57.23 35.16 50.32 4286578943
57.220001 35.369999 50.43 4286578943
57.200001 35.380001 50.739998 4286578943
57.189999 35.580002 50.849998 4286578943
57.18 36.169998 50.599998 4286578943
57.16 36.060001 51.02 4286578943
57.150002 36.32 51.079998 4286578943
57.130001 36.639999 51.099998 4286578943
57.119999 36.990002 51.09 4286578943
57.110001 37.400002 50.989998 4286578943
56.98 35.32 50.41 4286578943
56.959999 35.450001 50.610001 4286578943
56.950001 35.599998 50.779999 4286578943
56.939999 35.860001 50.849998 4286578943
56.919998 36.07 50.939999 4286578943
56.91 36.290001 51.060001 4286578943
56.900002 36.560001 51.110001 4286578943
56.880001 36.93 51.07 4286578943
56.869999 37.360001 50.970001 4286578943
56.919998 35.400002 50.43 4286578943
56.900002 35.450001 50.709999 4286578943
56.889999 35.709999 50.779999 4286578943
56.880001 36.029999 50.799999 4286578943
56.860001 36.07 51.060001 4286578943
56.849998 36.41 51.040001 4286578943
56.84 36.709999 51.079998 4286578943
56.82 36.970001 51.130001 4286578943
56.810001 37.540001 50.900002 4286578943
56.84 35.310001 50.349998 4286578943
56.830002 35.450001 50.52 4286578943
56.810001 35.52 50.779999 4286578943
56.799999 35.82 50.790001 4286578943
56.790001 36.119999 50.829998 4286578943
56.77 36.200001 51.079998 4286578943
56.759998 36.52 51.079998 4286578943
56.740002 36.900002 51.029999 4286578943
56.73 37.09 51.150002 4286578943
56.689999 35.32 50.450001 4286578943
56.68 35.509998 50.59 4286578943
56.66 35.580002 50.849998 4286578943
56.650002 35.970001 50.779999 4286578943
56.639999 36.029999 51.040001 4286578943
56.619999 36.369999 51.009998 4286578943
56.610001 36.619999 51.09 4286578943
56.599998 36.98 51.049999 4286578943
56.580002 37.299999 51.07 4286578943
56.619999 35.330002 50.400002 4286578943
56.610001 35.5 50.540001 4286578943
56.59 35.549999 50.799999 4286578943
56.580002 35.860001 50.82 4286578943
56.57 36.23 50.77 4286578943
56.549999 36.200001 51.130001 4286578943
56.540001 36.529999 51.130001 4286578943
56.529999 36.91 51.09 4286578943
56.509998 37.189999 51.119999 4286578943
56.599998 35.380001 50.419998 4286578943
56.580002 35.529999 50.599998 4286578943
56.57 35.599998 50.849998 4286578943
56.549999 35.959999 50.810001 4286578943
56.540001 36.110001 50.98 4286578943
56.529999 36.32 51.09 4286578943
56.509998 36.619999 51.110001 4286578943
56.5 36.959999 51.110001 4286578943
56.490002 37.34 51.060001 4286578943
56.540001 35.459999 50.450001 4286578943
56.52 35.540001 50.68 4286578943
56.509998 35.689999 50.849998 4286578943
56.490002 36.139999 50.739998 4286578943
56.48 36.099998 51.099998 4286578943
56.470001 36.450001 51.07 4286578943
56.450001 36.759998 51.07 4286578943
56.439999 37.119999 51.049999 4286578943
56.43 37.540001 50.950001 4286578943
56.349998 35.32 50.450001 4286578943
56.34 35.630001 50.470001 4286578943
56.32 35.630001 50.779999 4286578943
56.310001 35.900002 50.829998 4286578943
56.290001 36.18 50.889999 4286578943
56.279999 36.27 51.110001 4286578943
56.27 36.709999 51 4286578943
56.25 36.93 51.119999 4286578943
56.240002 37.369999 51.009998 4286578943
56.419998 35.330002 50.43 4286578943
56.41 35.650002 50.439999 4286578943
56.400002 35.59 50.799999 4286578943
56.380001 35.900002 50.829998 4286578943
56.369999 36.23 50.829998 4286578943
56.349998 36.290001 51.099998 4286578943
56.34 36.720001 50.98 4286578943
56.330002 36.950001 51.07 4286578943
56.310001 37.32 51.040001 4286578943
56.639999 35.279999 50.290001 4286578943
56.630001 35.459999 50.450001 4286578943
56.610001 35.48 50.739998 4286578943
56.599998 35.700001 50.829998 4286578943
56.59 36.16 50.700001 4286578943
56.57 36.07 51.110001 4286578943
56.560001 36.48 51.029999 4286578943
56.540001 36.799999 51.040001 4286578943
56.529999 37.119999 51.049999 4286578943
56.52 37.580002 50.919998 4286578943
56.779999 35.279999 50.369999 4286578943
56.77 35.470001 50.5 4286578943
56.75 35.490002 50.799999 4286578943
56.740002 35.77 50.829998 4286578943
56.720001 36.09 50.84 4286578943
56.709999 36.18 51.060001 4286578943
56.689999 36.509998 51.060001 4286578943
56.68 36.810001 51.09 4286578943
56.669998 37.09 51.139999 4286578943
56.400002 35.32 50.419998 4286578943
56.380001 35.610001 50.459999 4286578943
56.369999 35.619999 50.779999 4286578943
56.349998 35.860001 50.849998 4286578943
56.34 36.150002 50.869999 4286578943
56.32 36.23 51.119999 4286578943
56.310001 36.68 50.989998 4286578943
56.290001 36.939999 51.060001 4286578943
56.279999 37.32 51.02 4286578943
56.119999 35.48 50.43 4286578943
56.110001 35.639999 50.599998 4286578943
56.09 35.77 50.779999 4286578943
56.080002 36.119999 50.759998 4286578943
56.060001 36.110001 51.099998 4286578943
56.049999 36.41 51.130001 4286578943
56.029999 36.790001 51.07 4286578943
56.02 37.080002 51.09 4286578943
56.009998 37.529999 50.98 4286578943
56.139999 35.41 50.439999 4286578943
56.119999 35.66 50.529999 4286578943
56.110001 35.720001 50.790001 4286578943
56.09 36.099998 50.739998 4286578943
56.080002 36.080002 51.079998 4286578943
56.060001 36.360001 51.110001 4286578943
56.049999 36.75 51.049999 4286578943
56.040001 36.990002 51.130001 4286578943
56.029999 37.43 51.029999 4286578943
56.169998 35.369999 50.419998 4286578943
56.150002 35.630001 50.48 4286578943
56.139999 35.68 50.75 4286578943
56.119999 35.990002 50.75 4286578943
56.099998 36.080002 50.989998 4286578943
56.09 36.189999 51.189999 4286578943
56.080002 36.630001 51.079998 4286578943
56.060001 36.869999 51.169998 4286578943
56.049999 37.27 51.110001 4286578943
55.970001 35.369999 50.419998 4286578943
55.959999 35.610001 50.5 4286578943
55.939999 35.630001 50.810001 4286578943
55.93 36.040001 50.73 4286578943
55.91 36.310001 50.779999 4286578943
55.889999 36.299999 51.099998 4286578943
55.880001 36.68 51.049999 4286578943
55.860001 36.880001 51.169998 4286578943
55.849998 37.360001 51.029999 4286578943
55.689999 35.380001 50.349998 4286578943
55.68 35.57 50.470001 4286578943
55.66 35.610001 50.759998 4286578943
55.650002 35.849998 50.849998 4286578943
55.639999 36.310001 50.720001 4286578943
55.619999 36.290001 51.049999 4286578943
55.610001 36.549999 51.110001 4286578943
55.59 36.939999 51.049999 4286578943
55.580002 37.209999 51.110001 4286578943
55.57 37.759998 50.900002 4286578943
55.68 35.419998 50.41 4286578943
55.669998 35.689999 50.459999 4286578943
55.650002 35.650002 50.810001 4286578943
55.639999 35.970001 50.82 4286578943
55.630001 36.490002 50.610001 4286578943
55.610001 36.360001 51.07 4286578943
55.59 36.639999 51.130001 4286578943
55.580002 36.98 51.110001 4286578943
55.57 37.389999 51.029999 4286578943
55.490002 35.599998 50.43 4286578943
55.48 35.709999 50.650002 4286578943
55.459999 35.849998 50.82 4286578943
55.450001 36.240002 50.77 4286578943
55.43 36.349998 50.989998 4286578943
55.419998 36.560001 51.099998 4286578943
55.400002 36.91 51.079998 4286578943
55.389999 37.209999 51.099998 4286578943
55.380001 37.759998 50.889999 4286578943
55.18 35.59 50.459999 4286578943
55.169998 35.77 50.599998 4286578943
55.150002 35.889999 50.799999 4286578943
55.139999 36.200001 50.82 4286578943
55.119999 36.82 50.540001 4286578943
55.110001 37.200001 50.489998 4286578943
55.099998 37.43 50.579998 4286578943
55.080002 37.540001 50.799999 4286578943
55.060001 37.779999 50.880001 4286578943
54.93 35.5 50.5 4286578943
54.919998 35.790001 50.52 4286578943
54.900002 35.900002 50.73 4286578943
54.889999 36.139999 50.82 4286578943
54.880001 36.68 50.599998 4286578943
54.860001 36.950001 50.66 4286578943
54.84 37.02 50.919998 4286578943
54.830002 37.310001 50.959999 4286578943
54.810001 37.639999 50.950001 4286578943
54.790001 36.779999 52.099998 4286578943
54.830002 35.540001 50.459999 4286578943
54.82 35.82 50.489998 4286578943
54.810001 35.82 50.790001 4286578943
54.790001 36.220001 50.73 4286578943
54.779999 36.709999 50.549999 4286578943
54.77 37 50.599998 4286578943
54.75 37 50.919998 4286578943
54.740002 37.43 50.829998 4286578943
54.720001 37.700001 50.880001 4286578943
54.630001 35.57 50.470001 4286578943
54.619999 35.82 50.529999 4286578943
54.599998 35.830002 50.84 4286578943
54.59 36.169998 50.84 4286578943
54.57 36.529999 50.790001 4286578943
54.560001 36.619999 51.029999 4286578943
54.540001 36.810001 51.169998 4286578943
54.529999 37.139999 51.169998 4286578943
54.52 37.59 51.040001 4286578943
54.34 35.599998 50.470001 4286578943
54.32 35.810001 50.599998 4286578943
54.310001 35.880001 50.860001 4286578943
54.290001 36.200001 50.860001 4286578943
54.279999 36.389999 50.989998 4286578943
54.259998 36.540001 51.16 4286578943
54.25 36.869999 51.16 4286578943
54.240002 37.169998 51.18 4286578943
54.220001 37.560001 51.119999 4286578943
54.439999 35.549999 50.349998 4286578943
54.419998 35.740002 50.48 4286578943
54.400002 35.779999 50.759998 4286578943
54.389999 36.02 50.84 4286578943
54.380001 36.330002 50.860001 4286578943
54.360001 36.380001 51.119999 4286578943
54.349998 36.73 51.099998 4286578943
54.330002 37.029999 51.139999 4286578943
54.32 37.330002 51.169998 4286578943
54.299999 37.810001 51.02 4286578943
54.580002 35.52 50.34 4286578943
54.560001 35.700001 50.489998 4286578943
54.549999 35.799999 50.709999 4286578943
54.529999 35.98 50.860001 4286578943
54.52 36.299999 50.869999 4286578943
54.5 36.450001 51.040001 4286578943
54.490002 36.709999 51.09 4286578943
54.470001 36.950001 51.18 4286578943
54.459999 37.279999 51.169998 4286578943
54.450001 37.790001 51 4286578943
54.419998 35.740002 50.529999 4286578943
54.400002 35.82 50.779999 4286578943
54.389999 36.049999 50.869999 4286578943
54.369999 36.369999 50.889999 4286578943
54.349998 36.43 51.139999 4286578943
54.34 36.82 51.079998 4286578943
54.330002 37.049999 51.18 4286578943
54.310001 37.380001 51.169998 4286578943
54.299999 37.93 50.959999 4286578943
54.049999 35.630001 50.470001 4286578943
54.040001 35.82 50.599998 4286578943
54.02 35.860001 50.889999 4286578943
54.009998 36.189999 50.889999 4286578943
53.990002 36.490002 50.919998 4286578943
53.98 36.59 51.130001 4286578943
53.970001 37.02 51.029999 4286578943
53.950001 37.220001 51.16 4286578943
53.939999 37.630001 51.060001 4286578943
53.790001 35.66 50.459999 4286578943
53.779999 35.860001 50.57 4286578943
53.77 35.889999 50.860001 4286578943
53.75 36.23 50.849998 4286578943
53.740002 36.459999 50.939999 4286578943
53.720001 36.52 51.209999 4286578943
53.709999 36.98 51.079998 4286578943
53.689999 37.27 51.130001 4286578943
53.68 37.689999 51.029999 4286578943
53.880001 35.66 50.459999 4286578943
53.869999 35.830002 50.619999 4286578943
53.849998 35.900002 50.860001 4286578943
53.84 36.23 50.860001 4286578943
53.82 36.490002 50.919998 4286578943
53.810001 36.610001 51.139999 4286578943
53.799999 37 51.07 4286578943
53.779999 37.23 51.150002 4286578943
53.77 37.740002 50.98 4286578943
54.130001 35.610001 50.470001 4286578943
54.110001 35.82 50.599998 4286578943
54.09 35.900002 50.849998 4286578943
54.080002 36.200001 50.860001 4286578943
54.07 36.549999 50.82 4286578943
54.049999 36.650002 51.060001 4286578943
54.040001 36.900002 51.119999 4286578943
54.02 37.18 51.18 4286578943
54.009998 37.549999 51.139999 4286578943
54.16 35.650002 50.450001 4286578943
54.150002 35.810001 50.619999 4286578943
54.130001 35.919998 50.84 4286578943
54.119999 36.220001 50.869999 4286578943
54.099998 36.439999 50.959999 4286578943
54.09 36.669998 51.049999 4286578943
54.07 36.91 51.130001 4286578943
54.060001 37.209999 51.16 4286578943
54.049999 37.669998 51.029999 4286578943
53.950001 35.599998 50.34 4286578943
53.93 35.740002 50.509998 4286578943
53.91 35.810001 50.77 4286578943
53.900002 36.040001 50.869999 4286578943
53.889999 36.419998 50.82 4286578943
53.869999 36.419998 51.130001 4286578943
53.860001 36.720001 51.150002 4286578943
53.84 37.139999 51.060001 4286578943
53.830002 37.41 51.110001 4286578943
53.82 37.959999 50.91 4286578943
53.740002 35.639999 50.5 4286578943
53.720001 35.860001 50.59 4286578943
53.700001 35.889999 50.889999 4286578943
53.689999 36.240002 50.849998 4286578943
53.68 36.380001 51.049999 4286578943
53.66 36.57 51.189999 4286578943
53.650002 37.009998 51.079998 4286578943
53.639999 37.240002 51.169998 4286578943
53.619999 37.639999 51.09 4286578943
53.720001 35.75 50.5 4286578943
53.700001 35.849998 50.73 4286578943
53.689999 36.029999 50.880001 4286578943
53.669998 36.360001 50.880001 4286578943
53.66 36.400002 51.150002 4286578943
53.639999 36.700001 51.169998 4286578943
53.630001 37.139999 51.07 4286578943
53.619999 37.349998 51.169998 4286578943
53.610001 37.959999 50.91 4286578943
53.779999 35.619999 50.48 4286578943
53.77 35.84 50.57 4286578943
53.75 35.91 50.84 4286578943
53.740002 36.189999 50.869999 4286578943
53.73 36.43 50.959999 4286578943
53.709999 36.529999 51.189999 4286578943
53.700001 36.939999 51.110001 4286578943
53.689999 37.25 51.119999 4286578943
53.669998 37.57 51.130001 4286578943
53.950001 35.610001 50.400002 4286578943
53.93 35.790001 50.529999 4286578943
53.91 35.830002 50.810001 4286578943
53.900002 36.110001 50.860001 4286578943
53.889999 36.41 50.869999 4286578943
53.869999 36.439999 51.169998 4286578943
53.860001 36.830002 51.110001 4286578943
53.849998 37.169998 51.110001 4286578943
53.830002 37.509998 51.099998 4286578943
53.75 35.849998 50.52 4286578943
53.73 35.869999 50.810001 4286578943
53.720001 36.110001 50.889999 4286578943
53.700001 36.41 50.919998 4286578943
53.68 36.48 51.16 4286578943
53.669998 36.790001 51.18 4286578943
53.66 37.169998 51.139999 4286578943
53.650002 37.419998 51.220001 4286578943
53.639999 38.110001 50.860001 4286578943
53.59 35.759998 50.509998 4286578943
53.57 35.880001 50.700001 4286578943
53.560001 36.040001 50.869999 4286578943
53.540001 36.41 50.829998 4286578943
53.52 36.380001 51.189999 4286578943
53.509998 36.639999 51.25 4286578943
53.490002 36.799999 51.400002 4286578943
53.48 37.259998 51.279999 4286578943
53.48 37.91 50.959999 4286578943
53.349998 35.720001 50.450001 4286578943
53.330002 35.900002 50.59 4286578943
53.310001 35.959999 50.860001 4286578943
53.299999 36.290001 50.849998 4286578943
53.279999 36.330002 51.130001 4286578943
53.27 36.43 51.349998 4286578943
53.25 36.560001 51.529999 4286578943
53.23 36.709999 51.720001 4286578943
53.220001 36.950001 51.799999 4286578943
53.209999 37.43 51.66 4286578943
53.02 35.790001 50.5 4286578943
53 35.98 50.619999 4286578943
52.98 36.099998 50.84 4286578943
52.970001 36.279999 50.98 4286578943
52.950001 36.080002 51.5 4286578943
52.93 36.220001 51.68 4286578943
52.919998 36.470001 51.739998 4286578943
52.900002 36.669998 51.869999 4286578943
52.889999 36.889999 51.970001 4286578943
52.880001 37.25 51.950001 4286578943
52.709999 35.810001 50.489998 4286578943
52.700001 36.009998 50.610001 4286578943
52.68 36.080002 50.860001 4286578943
52.66 36.07 51.200001 4286578943
52.639999 36.029999 51.560001 4286578943
52.630001 36.169998 51.739998 4286578943
52.619999 36.400002 51.82 4286578943
52.599998 36.630001 51.919998 4286578943
52.59 36.889999 51.98 4286578943
52.580002 37.18 52.02 4286578943
52.560001 37.59 51.939999 4286578943
52.830002 35.759998 50.43 4286578943
52.810001 35.970001 50.529999 4286578943
52.790001 36 50.84 4286578943
52.779999 36.16 50.989998 4286578943
52.759998 36 51.470001 4286578943
52.740002 36.099998 51.700001 4286578943
52.73 36.34 51.790001 4286578943
52.720001 36.59 51.849998 4286578943
52.700001 36.790001 51.959999 4286578943
52.689999 37.049999 52.040001 4286578943
52.68 37.48 51.939999 4286578943
52.799999 35.959999 50.560001 4286578943
52.779999 36.009998 50.84 4286578943
52.759998 36.130001 51.049999 4286578943
52.740002 35.990002 51.509998 4286578943
52.73 36.110001 51.700001 4286578943
52.709999 36.369999 51.759998 4286578943
52.700001 36.610001 51.84 4286578943
52.689999 36.810001 51.959999 4286578943
52.669998 37.07 52.040001 4286578943
52.66 37.540001 51.900002 4286578943
52.220001 35.830002 50.509998 4286578943
52.209999 36.040001 50.619999 4286578943
52.189999 36.119999 50.860001 4286578943
52.18 36.470001 50.829998 4286578943
52.16 36.169998 51.439999 4286578943
52.139999 36.310001 51.619999 4286578943
52.130001 36.529999 51.73 4286578943
52.110001 36.740002 51.849998 4286578943
52.099998 37.02 51.91 4286578943
52.09 37.5 51.75 4286578943
52.110001 37.400002 51.799999 4286578943
52.049999 36.959999 51.869999 4286578943
52.02 36.75 51.759998 4286578943
52.009998 36.75 51.439999 4286578943
51.959999 36.48 51.360001 4286578943
51.939999 36.389999 51.130001 4286578943
51.93 36.32 50.860001 4286578943
51.889999 36.09 50.75 4286578943
51.869999 36.029999 50.48 4286578943
52.470001 37.290001 52.029999 4286578943
52.43 37.02 51.959999 4286578943
52.389999 36.740002 51.889999 4286578943
52.34 36.439999 51.84 4286578943
52.299999 36.23 51.709999 4286578943
52.279999 36.150002 51.459999 4286578943
52.299999 36.34 50.98 4286578943
52.27 36.139999 50.849998 4286578943
52.240002 36.029999 50.619999 4286578943
52.209999 35.830002 50.489998 4286578943
52.639999 37.459999 51.989998 4286578943
52.580002 37.060001 52.029999 4286578943
52.540001 36.790001 51.959999 4286578943
52.5 36.529999 51.869999 4286578943
52.450001 36.259998 51.790001 4286578943
52.43 36.119999 51.59 4286578943
52.41 36.09 51.310001 4286578943
52.43 36.259998 50.84 4286578943
52.380001 35.990002 50.759998 4286578943
52.369999 35.950001 50.489998 4286578943
52.66 37.560001 51.989998 4286578943
52.599998 37.150002 52.040001 4286578943
52.549999 36.82 52.02 4286578943
52.52 36.639999 51.880001 4286578943
52.470001 36.330002 51.829998 4286578943
52.439999 36.130001 51.700001 4286578943
52.419998 36.119999 51.389999 4286578943
52.43 36.290001 50.91 4286578943
52.389999 36.029999 50.82 4286578943
52.380001 36 50.529999 4286578943
52.32 37.200001 52.029999 4286578943
52.279999 36.939999 51.950001 4286578943
52.240002 36.73 51.829998 4286578943
52.200001 36.459999 51.75 4286578943
52.169998 36.299999 51.579998 4286578943
52.16 36.299999 51.259998 4286578943
52.16 36.389999 50.860001 4286578943
52.110001 36.080002 50.810001 4286578943
52.09 36.029999 50.529999 4286578943
52.189999 37.48 51.82 4286578943
52.119999 36.990002 51.93 4286578943
52.09 36.790001 51.810001 4286578943
52.060001 36.610001 51.650002 4286578943
52.02 36.380001 51.540001 4286578943
52 36.34 51.27 4286578943
52 36.439999 50.84 4286578943
51.950001 36.080002 50.849998 4286578943
51.93 36.040001 50.560001 4286578943
52.52 37.150002 52.049999 4286578943
52.48 36.880001 51.959999 4286578943
52.439999 36.66 51.84 4286578943
52.389999 36.310001 51.84 4286578943
52.369999 36.18 51.639999 4286578943
52.349998 36.139999 51.369999 4286578943
52.360001 36.299999 50.889999 4286578943
52.32 36.049999 50.810001 4286578943
52.310001 36 50.529999 4286578943
53.200001 37.279999 51.84 4286578943
53.150002 36.93 51.849998 4286578943
53.099998 36.630001 51.810001 4286578943
53.080002 36.490002 51.610001 4286578943
53.029999 36.169998 51.579998 4286578943
53.02 36.150002 51.279999 4286578943
53.02 36.259998 50.849998 4286578943
52.98 35.970001 50.790001 4286578943
52.970001 35.959999 50.489998 4286578943
53.27 37 51.689999 4286578943
53.220001 36.669998 51.669998 4286578943
53.18 36.41 51.57 4286578943
53.139999 36.220001 51.439999 4286578943
53.150002 36.349998 51.009998 4286578943
53.119999 36.18 50.829998 4286578943
53.080002 35.939999 50.739998 4286578943
53.060001 35.880001 50.470001 4286578943
53.099998 37.48 51.799999 4286578943
53.040001 36.990002 51.93 4286578943
52.990002 36.720001 51.860001 4286578943
52.950001 36.470001 51.759998 4286578943
52.91 36.240002 51.669998 4286578943
52.880001 36.040001 51.52 4286578943
52.900002 36.34 50.919998 4286578943
52.860001 36.060001 50.849998 4286578943
52.84 36.02 50.579998 4286578943
52.810001 35.779999 50.48 4286578943
53.029999 37.360001 51.919998 4286578943
52.98 36.990002 51.93 4286578943
52.939999 36.77 51.82 4286578943
52.900002 36.459999 51.790001 4286578943
52.860001 36.189999 51.700001 4286578943
52.830002 36.060001 51.509998 4286578943
52.84 36.23 51.029999 4286578943
52.810001 36.09 50.84 4286578943
52.790001 35.970001 50.619999 4286578943
52.759998 35.810001 50.439999 4286578943
53.5 37.25 51.400002 4286578943
53.439999 36.84 51.450001 4286578943
53.41 36.599998 51.349998 4286578943
53.380001 36.450001 51.16 4286578943
53.369999 36.400002 50.869999 4286578943
53.310001 36.040001 50.880001 4286578943
53.290001 35.950001 50.650002 4286578943
53.27 35.779999 50.489998 4286578943
54.259998 37.619999 51.18 4286578943
54.209999 37.299999 51.16 4286578943
54.16 36.93 51.169998 4286578943
54.119999 36.68 51.079998 4286578943
54.09 36.48 50.93 4286578943
54.040001 36.189999 50.869999 4286578943
53.990002 35.869999 50.84 4286578943
53.98 35.860001 50.540001 4286578943
53.939999 35.599998 50.470001 4286578943
54.619999 37.349998 51.07 4286578943
54.57 36.970001 51.09 4286578943
54.52 36.650002 51.07 4286578943
54.490002 36.459999 50.93 4286578943
54.439999 36.169998 50.860001 4286578943
54.389999 35.849998 50.849998 4286578943
54.380001 35.810001 50.560001 4286578943
54.349998 35.619999 50.400002 4286578943
54.68 37.740002 50.970001 4286578943
54.610001 37.23 51.099998 4286578943
54.549999 36.869999 51.099998 4286578943
54.5 36.5 51.119999 4286578943
54.490002 36.48 50.829998 4286578943
54.43 36.080002 50.860001 4286578943
54.389999 35.82 50.790001 4286578943
54.369999 35.799999 50.48 4286578943
54.330002 35.549999 50.380001 4286578943
54.490002 37.93 50.970001 4286578943
54.41 37.349998 51.16 4286578943
54.360001 37.009998 51.150002 4286578943
54.299999 36.650002 51.16 4286578943
54.27 36.419998 51.049999 4286578943
54.240002 36.259998 50.869999 4286578943
54.189999 35.93 50.860001 4286578943
54.169998 35.860001 50.59 4286578943
54.130001 35.639999 50.470001 4286578943
54.619999 37.970001 50.869999 4286578943
54.529999 37.299999 51.139999 4286578943
54.48 36.939999 51.150002 4286578943
54.439999 36.66 51.079998 4286578943
54.400002 36.41 51 4286578943
54.360001 36.220001 50.849998 4286578943
54.310001 35.880001 50.84 4286578943
54.299999 35.84 50.549999 4286578943
54.27 35.650002 50.400002 4286578943
54.860001 36.77 52 4286578943
54.93 37.369999 51.130001 4286578943
54.900002 37.150002 51.02 4286578943
54.849998 36.880001 50.939999 4286578943
54.849998 36.919998 50.57 4286578943
54.77 36.330002 50.790001 4286578943
54.709999 35.939999 50.829998 4286578943
54.700001 35.869999 50.579998 4286578943
54.66 35.619999 50.489998 4286578943
55.599998 37.849998 50.849998 4286578943
55.509998 37.189999 51.119999 4286578943
55.459999 36.849998 51.099998 4286578943
55.41 36.529999 51.079998 4286578943
55.389999 36.459999 50.829998 4286578943
55.349998 36.169998 50.77 4286578943
55.290001 35.779999 50.82 4286578943
55.279999 35.779999 50.489998 4286578943
55.240002 35.509998 50.400002 4286578943
55.68 37.529999 50.98 4286578943
55.610001 37.009998 51.110001 4286578943
55.560001 36.740002 51.049999 4286578943
55.509998 36.41 51.02 4286578943
55.509998 36.419998 50.689999 4286578943
55.43 35.919998 50.82 4286578943
55.400002 35.759998 50.650002 4286578943
55.380001 35.619999 50.459999 4286578943
55.34 35.419998 50.32 4286578943
55.310001 37.580002 50.919998 4286578943
55.27 37.299999 50.860001 4286578943
55.200001 36.82 50.970001 4286578943
55.169998 36.639999 50.810001 4286578943
55.110001 36.259998 50.829998 4286578943
55.060001 35.93 50.799999 4286578943
55.029999 35.77 50.619999 4286578943
