# .PCD v0.7 - Point Cloud Data file format
VERSION 0.7
FIELDS x y z rgb
SIZE 4 4 4 4
TYPE F F F U
COUNT 1 1 1 1
WIDTH 1255
HEIGHT 1
VIEWPOINT 0 0 0 1 0 0 0
POINTS 1255
DATA ascii
66.93 34.860001 51.130001 4278255615
66.910004 35.139999 51.169998 4278255615
66.900002 35.349998 51.279999 4278255615
66.889999 35.73 51.23 4278255615
66.82 33.990002 50.259998 4278255615
66.809998 34.220001 50.349998 4278255615
66.790001 34.25 50.650002 4278255615
66.779999 34.540001 50.68 4278255615
66.760002 34.720001 50.810001 4278255615
66.75 35.060001 50.779999 4278255615
66.730003 35.029999 51.139999 4278255615
66.720001 35.25 51.239998 4278255615
66.699997 35.529999 51.279999 4278255615
66.690002 36 51.139999 4278255615
66.639999 33.98 50.16 4278255615
66.620003 34.209999 50.259998 4278255615
66.610001 34.240002 50.549999 4278255615
66.589996 34.419998 50.68 4278255615
66.580002 34.740002 50.669998 4278255615
66.559998 34.720001 51.02 4278255615
66.550003 34.950001 51.110001 4278255615
66.529999 35.23 51.150002 4278255615
66.519997 35.529999 51.169998 4278255615
66.510002 35.919998 51.119999 4278255615
66.410004 33.98 50.07 4278255615
66.400002 34.110001 50.259998 4278255615
66.379997 34.290001 50.400002 4278255615
66.370003 34.360001 50.650002 4278255615
66.349998 34.689999 50.650002 4278255615
66.339996 35.060001 50.599998 4278255615
66.32 34.990002 50.989998 4278255615
66.309998 35.18 51.110001 4278255615
66.300003 35.549999 51.07 4278255615
66.279999 35.82 51.110001 4278255615
66.269997 36.130001 51.130001 4278255615
66.110001 34.990002 55.049999 4278255615
66.089996 35.150002 55.200001 4278255615
66.080002 35.759998 54.919998 4278255615
66.07 35.700001 55.279999 4278255615
66.050003 35.93 55.360001 4278255615
66.040001 35.889999 55.709999 4278255615
66.019997 35.98 55.93 4278255615
66.07 34.099998 50.27 4278255615
66.050003 34.34 50.34 4278255615
66.040001 34.369999 50.630001 4278255615
66.019997 34.639999 50.689999 4278255615
66.010002 35.009998 50.639999 4278255615
65.989998 35.029999 50.950001 4278255615
65.980003 35.290001 51 4278255615
65.970001 35.57 51.029999 4278255615
65.949997 35.849998 51.079998 4278255615
65.940002 36.16 51.079998 4278255615
65.830002 34.720001 54.380001 4278255615
65.82 34.759998 54.639999 4278255615
65.800003 34.759998 54.950001 4278255615
65.779999 34.700001 55.32 4278255615
65.769997 34.84 55.489998 4278255615
65.760002 35.110001 55.529999 4278255615
65.739998 35.34 55.610001 4278255615
65.730003 35.32 55.939999 4278255615
65.709999 35.380001 56.169998 4278255615
65.699997 35.52 56.360001 4278255615
66.010002 34.029999 50.150002 4278255615
66 34.220001 50.279999 4278255615
65.980003 34.330002 50.48 4278255615
65.970001 34.450001 50.68 4278255615
65.959999 34.77 50.669998 4278255615
65.940002 34.98 50.799999 4278255615
65.93 35.099998 51 4278255615
65.910004 35.349998 51.07 4278255615
65.900002 35.68 51.060001 4278255615
65.889999 36 51.049999 4278255615
65.760002 34.669998 54.549999 4278255615
65.739998 34.57 54.950001 4278255615
65.730003 34.59 55.23 4278255615
65.709999 34.669998 55.459999 4278255615
65.699997 34.959999 55.5 4278255615
65.690002 35.330002 55.459999 4278255615
65.669998 35.150002 55.919998 4278255615
65.650002 35.310001 56.07 4278255615
65.639999 35.52 56.169998 4278255615
65.629997 35.529999 56.459999 4278255615
66.110001 34.060001 50.119999 4278255615
66.099998 34.209999 50.27 4278255615
66.080002 34.32 50.489998 4278255615
66.059998 34.450001 50.669998 4278255615
66.050003 34.799999 50.650002 4278255615
66.040001 35.07 50.700001 4278255615
66.019997 35.130001 50.970001 4278255615
66 35.369999 51.049999 4278255615
65.989998 35.700001 51.029999 4278255615
65.980003 36 51.060001 4278255615
65.970001 36.439999 50.939999 4278255615
65.860001 34.66 54.239998 4278255615
65.839996 34.700001 54.52 4278255615
65.830002 34.610001 54.899998 4278255615
65.809998 34.84 55 4278255615
65.790001 34.709999 55.439999 4278255615
65.779999 34.990002 55.469997 4278255615
65.769997 35.240002 55.540001 4278255615
65.75 35.380001 55.700001 4278255615
65.739998 35.43 55.959999 4278255615
65.720001 35.450001 56.23 4278255615
65.699997 35.509998 56.48 4278255615
65.93 34.130001 50.23 4278255615
65.910004 34.330002 50.349998 4278255615
65.889999 34.330002 50.669998 4278255615
65.879997 34.639999 50.669998 4278255615
65.870003 34.919998 50.720001 4278255615
65.849998 35.029999 50.939999 4278255615
65.839996 35.259998 51.029999 4278255615
65.82 35.580002 51.02 4278255615
65.809998 35.880001 51.049999 4278255615
65.800003 36.310001 50.93 4278255615
65.669998 34.630001 54.469997 4278255615
65.660004 34.470001 54.91 4278255615
65.639999 34.720001 54.989998 4278255615
65.620003 34.59 55.419998 4278255615
65.610001 34.790001 55.540001 4278255615
65.599998 35.290001 55.369999 4278255615
65.580002 35.049999 55.889999 4278255615
65.57 35.240002 56.02 4278255615
65.550003 35.259998 56.290001 4278255615
65.540001 35.400002 56.469997 4278255615
65.550003 34.16 50.23 4278255615
65.540001 34.360001 50.34 4278255615
65.519997 34.389999 50.650002 4278255615
65.5 34.650002 50.700001 4278255615
65.489998 34.950001 50.709999 4278255615
65.470001 35.009998 50.98 4278255615
65.459999 35.279999 51.02 4278255615
65.449997 35.560001 51.07 4278255615
65.43 36 50.959999 4278255615
65.419998 36.459999 50.829998 4278255615
65.309998 34.650002 54.469997 4278255615
65.290001 34.549999 54.869999 4278255615
65.279999 34.84 54.899998 4278255615
65.260002 34.669998 55.349998 4278255615
65.239998 34.860001 55.489998 4278255615
65.230003 35.23 55.43 4278255615
65.220001 35.93 55.079998 4278255615
65.199997 35.459999 55.829998 4278255615
65.190002 36.049999 55.59 4278255615
65.169998 35.73 56.169998 4278255615
65.150002 35.639999 56.549999 4278255615
65.139999 35.98 56.549999 4278255615
65.129997 36.110001 56.719997 4278255615
65.059998 34.27 50.23 4278255615
65.040001 34.48 50.34 4278255615
65.029999 34.5 50.66 4278255615
65.010002 34.790001 50.689999 4278255615
65 35.09 50.689999 4278255615
64.989998 35.09 51.02 4278255615
64.970001 35.369999 51.060001 4278255615
64.959999 35.700001 51.049999 4278255615
64.940002 36.290001 50.779999 4278255615
64.860001 35.009998 53.619999 4278255615
64.849998 34.630001 54.290001 4278255615
64.830002 34.549999 54.68 4278255615
64.82 34.599998 54.939999 4278255615
64.809998 35.380001 54.5 4278255615
64.790001 34.73 55.419998 4278255615
64.769997 34.41 56.009998 4278255615
64.760002 34.700001 56.040001 4278255615
64.75 34.740002 56.309998 4278255615
64.730003 34.849998 56.509998 4278255615
64.720001 35.16 56.52 4278255615
64.699997 35.439999 56.57 4278255615
64.690002 35.619999 56.689999 4278255615
64.68 35.619999 56.98 4278255615
65.089996 34.200001 50.169998 4278255615
65.07 34.380001 50.299999 4278255615
65.059998 34.43 50.579998 4278255615
65.040001 34.669998 50.66 4278255615
65.029999 34.970001 50.68 4278255615
65.019997 35.049999 50.91 4278255615
65 35.259998 51.02 4278255615
64.989998 35.57 51.040001 4278255615
64.980003 36.150002 50.779999 4278255615
64.959999 36.549999 50.709999 4278255615
64.879997 34.540001 54.25 4278255615
64.870003 35.16 53.950001 4278255615
64.849998 34.549999 54.849998 4278255615
64.839996 35.470001 54.279999 4278255615
64.82 35.549999 54.509998 4278255615
64.800003 34.400002 55.899998 4278255615
64.790001 34.580002 56.029999 4278255615
64.779999 34.68 56.239998 4278255615
64.760002 34.990002 56.25 4278255615
64.75 35.07 56.469997 4278255615
64.739998 35.330002 56.529999 4278255615
64.720001 35.57 56.619999 4278255615
64.709999 35.599998 56.880001 4278255615
65.139999 34.18 50.189999 4278255615
65.120003 34.369999 50.329998 4278255615
65.110001 34.419998 50.59 4278255615
65.099998 34.630001 50.68 4278255615
65.080002 34.959999 50.68 4278255615
65.07 35.080002 50.880001 4278255615
65.050003 35.25 51.029999 4278255615
65.040001 35.580002 51.029999 4278255615
65.029999 36.02 50.919998 4278255615
65.010002 36.52 50.739998 4278255615
64.919998 34.990002 53.809998 4278255615
64.910004 35.349998 53.779999 4278255615
64.889999 34.540001 54.860001 4278255615
64.879997 35.400002 54.34 4278255615
64.870003 35.599998 54.459999 4278255615
64.839996 34.43 55.869999 4278255615
64.830002 34.619999 56 4278255615
64.82 34.740002 56.189999 4278255615
64.800003 35.169998 56.09 4278255615
64.790001 35.07 56.469997 4278255615
64.779999 35.459999 56.399998 4278255615
64.760002 35.52 56.649998 4278255615
64.75 35.82 56.669998 4278255615
65.07 34.209999 50.27 4278255615
65.059998 34.48 50.32 4278255615
65.040001 34.450001 50.669998 4278255615
65.029999 34.759998 50.669998 4278255615
65.010002 35.049999 50.709999 4278255615
65 35.09 51 4278255615
64.980003 35.419998 50.989998 4278255615
64.970001 35.66 51.07 4278255615
64.959999 36.240002 50.799999 4278255615
64.860001 34.84 53.77 4278255615
64.839996 34.599998 54.309998 4278255615
64.830002 34.619999 54.59 4278255615
64.809998 34.66 54.849998 4278255615
64.800003 35.360001 54.489998 4278255615
64.760002 34.389999 56.029999 4278255615
64.75 34.689999 56.049999 4278255615
64.730003 34.73 56.309998 4278255615
64.720001 34.84 56.5 4278255615
64.699997 35.07 56.59 4278255615
64.690002 35.41 56.559998 4278255615
64.68 35.630001 56.66 4278255615
64.660004 35.580002 57.009998 4278255615
64.830002 34.189999 50.23 4278255615
64.82 34.419998 50.32 4278255615
64.800003 34.490002 50.579998 4278255615
64.790001 34.700001 50.689999 4278255615
64.769997 34.990002 50.720001 4278255615
64.760002 35.220001 50.790001 4278255615
64.75 35.73 50.619999 4278255615
64.730003 35.82 50.84 4278255615
64.720001 36.169998 50.810001 4278255615
64.699997 36.52 50.790001 4278255615
64.68 35.43 52.189999 4278255615
64.660004 35.450001 52.489998 4278255615
64.650002 35.43 52.809998 4278255615
64.629997 35.380001 53.18 4278255615
64.610001 35.09 53.759998 4278255615
64.589996 34.66 54.489998 4278255615
64.580002 34.59 54.869999 4278255615
64.559998 34.639999 55.130001 4278255615
64.540001 34.310001 55.739998 4278255615
64.529999 34.490002 55.869999 4278255615
64.519997 34.700001 55.969997 4278255615
64.5 34.689999 56.279999 4278255615
64.489998 34.93 56.360001 4278255615
64.470001 34.98 56.619999 4278255615
64.459999 35.709999 56.239998 4278255615
64.440002 35.77 56.48 4278255615
64.43 35.48 57.029999 4278255615
64.629997 34.34 50.310001 4278255615
64.610001 34.540001 50.419998 4278255615
64.599998 34.599998 50.689999 4278255615
64.580002 34.880001 50.73 4278255615
64.57 35.450001 50.48 4278255615
64.559998 35.73 50.52 4278255615
64.540001 35.84 50.720001 4278255615
64.529999 36.139999 50.75 4278255615
64.519997 36.439999 50.759998 4278255615
64.43 35.02 53.73 4278255615
64.410004 34.509998 54.540001 4278255615
64.400002 35.02 54.349998 4278255615
64.379997 34.349998 55.299999 4278255615
64.370003 34.540001 55.43 4278255615
64.349998 34.540001 55.739998 4278255615
64.339996 34.599998 55.98 4278255615
64.330002 34.610001 56.259998 4278255615
64.309998 35.099998 56.110001 4278255615
64.300003 35.450001 56.059998 4278255615
64.279999 35.169998 56.630001 4278255615
64.269997 35.880001 56.27 4278255615
64.260002 35.689999 56.759998 4278255615
64.639999 34.279999 50.23 4278255615
64.620003 34.52 50.32 4278255615
64.610001 34.52 50.630001 4278255615
64.589996 34.77 50.709999 4278255615
64.580002 35.119999 50.68 4278255615
64.57 35.619999 50.5 4278255615
64.559998 35.720001 50.720001 4278255615
64.540001 36.02 50.73 4278255615
64.529999 36.310001 50.77 4278255615
64.519997 36.66 50.739998 4278255615
64.440002 35.259998 53.389999 4278255615
64.43 34.650002 54.27 4278255615
64.410004 34.540001 54.700001 4278255615
64.389999 34.529999 55 4278255615
64.379997 34.349998 55.48 4278255615
64.360001 34.330002 55.809998 4278255615
64.349998 34.529999 55.919998 4278255615
64.339996 34.580002 56.18 4278255615
64.32 34.630001 56.419998 4278255615
64.309998 35.490002 55.919998 4278255615
64.279999 35.810001 56.219997 4278255615
64.269997 35.610001 56.709999 4278255615
64.260002 36.209999 56.459999 4278255615
64.870003 34.16 50.23 4278255615
64.849998 34.41 50.310001 4278255615
64.839996 34.48 50.549999 4278255615
64.82 34.650002 50.689999 4278255615
64.809998 34.970001 50.700001 4278255615
64.790001 35.130001 50.849998 4278255615
64.779999 35.599998 50.709999 4278255615
64.769997 35.82 50.82 4278255615
64.760002 36.209999 50.759998 4278255615
64.739998 36.490002 50.799999 4278255615
64.709999 35.450001 52.119999 4278255615
64.699997 35.439999 52.459999 4278255615
64.68 35.330002 52.869999 4278255615
64.660004 35.380001 53.139999 4278255615
64.639999 35 53.829998 4278255615
64.620003 34.540001 54.579998 4278255615
64.599998 34.57 54.860001 4278255615
64.589996 34.610001 55.119999 4278255615
64.57 34.310001 55.719997 4278255615
64.550003 34.509998 55.809998 4278255615
64.540001 34.740002 55.899998 4278255615
64.519997 34.73 56.219997 4278255615
64.510002 34.91 56.360001 4278255615
64.489998 34.959999 56.599998 4278255615
64.480003 35.490002 56.399998 4278255615
64.470001 35.720001 56.489998 4278255615
64.449997 35.490002 57 4278255615
65.040001 34.209999 50.200001 4278255615
65.019997 34.43 50.290001 4278255615
65.010002 34.439999 50.610001 4278255615
64.989998 34.669998 50.689999 4278255615
64.980003 35.040001 50.650002 4278255615
64.959999 35.049999 50.959999 4278255615
64.949997 35.330002 51.009998 4278255615
64.93 35.66 51 4278255615
64.919998 36.200001 50.77 4278255615
64.910004 36.59 50.720001 4278255615
64.82 35.349998 53.200001 4278255615
64.790001 34.73 54.099998 4278255615
64.769997 34.580002 54.559998 4278255615
64.760002 34.650002 54.799999 4278255615
64.739998 34.689999 55.059998 4278255615
64.720001 34.5 55.549999 4278255615
64.699997 34.439999 55.919998 4278255615
64.690002 34.490002 56.18 4278255615
64.669998 34.84 56.139999 4278255615
64.660004 34.790001 56.48 4278255615
64.639999 34.959999 56.630001 4278255615
64.629997 35.189999 56.700001 4278255615
64.620003 35.630001 56.599998 4278255615
64.599998 35.59 56.939999 4278255615
65.07 34.150002 50.18 4278255615
65.050003 34.34 50.299999 4278255615
65.040001 34.439999 50.529999 4278255615
65.019997 34.619999 50.68 4278255615
65.010002 34.98 50.639999 4278255615
64.989998 35.029999 50.900002 4278255615
64.980003 35.240002 51.009998 4278255615
64.959999 35.59 50.98 4278255615
64.949997 35.93 50.959999 4278255615
64.940002 36.509998 50.709999 4278255615
64.849998 35.360001 53.110001 4278255615
64.82 34.830002 53.93 4278255615
64.800003 34.549999 54.509998 4278255615
64.779999 34.580002 54.779999 4278255615
64.769997 34.540001 55.139999 4278255615
64.75 34.380001 55.599998 4278255615
64.730003 34.41 55.860001 4278255615
64.709999 34.490002 56.079998 4278255615
64.699997 34.779999 56.110001 4278255615
64.68 34.759998 56.419998 4278255615
64.669998 34.849998 56.639999 4278255615
64.650002 35.150002 56.669998 4278255615
64.639999 35.599998 56.549999 4278255615
64.620003 35.599998 56.849998 4278255615
64.610001 35.630001 57.110001 4278255615
64.870003 34.209999 50.200001 4278255615
64.860001 34.419998 50.310001 4278255615
64.839996 34.490002 50.549999 4278255615
64.830002 34.669998 50.700001 4278255615
64.809998 34.970001 50.709999 4278255615
64.800003 35.150002 50.849998 4278255615
64.790001 35.619999 50.709999 4278255615
64.769997 35.790001 50.869999 4278255615
64.760002 36.25 50.720001 4278255615
64.75 36.5 50.790001 4278255615
64.709999 35.419998 52.18 4278255615
64.699997 35.380001 52.52 4278255615
64.68 35.369999 52.860001 4278255615
64.660004 35.360001 53.18 4278255615
64.639999 35.07 53.77 4278255615
64.610001 34.549999 54.579998 4278255615
64.599998 34.57 54.860001 4278255615
64.580002 34.630001 55.110001 4278255615
64.559998 34.290001 55.73 4278255615
64.540001 34.470001 55.869999 4278255615
64.529999 34.66 55.989998 4278255615
64.510002 34.709999 56.259998 4278255615
64.5 34.880001 56.380001 4278255615
64.480003 34.959999 56.610001 4278255615
64.480003 35.580002 56.329998 4278255615
64.459999 35.73 56.489998 4278255615
64.440002 35.509998 56.989998 4278255615
64.790001 34.23 50.239998 4278255615
64.769997 34.450001 50.329998 4278255615
64.760002 34.509998 50.579998 4278255615
64.739998 34.709999 50.709999 4278255615
64.730003 35 50.720001 4278255615
64.720001 35.470001 50.579998 4278255615
64.709999 35.84 50.540001 4278255615
64.690002 36.09 50.619999 4278255615
64.68 36.02 51 4278255615
64.650002 35.66 51.669998 4278255615
64.629997 35.490002 52.16 4278255615
64.610001 35.450001 52.509998 4278255615
64.599998 35.389999 52.889999 4278255615
64.580002 35.279999 53.299999 4278255615
64.550003 34.73 54.16 4278255615
64.529999 34.529999 54.639999 4278255615
64.510002 34.419998 55.049999 4278255615
64.5 34.610001 55.18 4278255615
64.480003 34.32 55.75 4278255615
64.459999 34.48 55.899998 4278255615
64.449997 34.57 56.130001 4278255615
64.43 34.689999 56.32 4278255615
64.419998 35.389999 55.959999 4278255615
64.400002 35.130001 56.489998 4278255615
64.400002 35.709999 56.25 4278255615
64.379997 35.709999 56.549999 4278255615
64.360001 35.630001 56.93 4278255615
64.980003 34.220001 50.290001 4278255615
64.970001 34.450001 50.369999 4278255615
64.949997 34.470001 50.669998 4278255615
64.940002 34.77 50.700001 4278255615
64.93 35.110001 50.66 4278255615
64.910004 35.110001 50.989998 4278255615
64.900002 35.380001 51.040001 4278255615
64.889999 35.880001 50.869999 4278255615
64.879997 36.349998 50.720001 4278255615
64.790001 35.369999 52.950001 4278255615
64.769997 35.400002 53.23 4278255615
64.739998 34.709999 54.219997 4278255615
64.709999 34.560001 54.66 4278255615
64.699997 34.619999 54.899998 4278255615
64.68 34.369999 55.459999 4278255615
64.660004 34.700001 55.43 4278255615
64.639999 34.52 55.91 4278255615
64.629997 34.57 56.169998 4278255615
64.610001 34.759998 56.299999 4278255615
64.599998 34.869999 56.489998 4278255615
64.580002 34.970001 56.68 4278255615
64.57 35.360001 56.619999 4278255615
64.559998 35.630001 56.66 4278255615
64.540001 35.57 57.02 4278255615
65.290001 34.139999 50.259998 4278255615
65.279999 34.389999 50.32 4278255615
65.260002 34.41 50.630001 4278255615
65.239998 34.689999 50.669998 4278255615
65.230003 34.970001 50.720001 4278255615
65.209999 34.98 51.02 4278255615
65.199997 35.349998 50.970001 4278255615
65.190002 35.610001 51.029999 4278255615
65.18 36.060001 50.900002 4278255615
65.169998 36.580002 50.709999 4278255615
65.040001 35.27 53.579998 4278255615
65 34.400002 54.719997 4278255615
64.989998 34.790001 54.66 4278255615
64.970001 35.709999 54.399998 4278255615
64.940002 35.150002 55.23 4278255615
64.910004 34.619999 56.029999 4278255615
64.879997 34.990002 56.27 4278255615
64.870003 35.119999 56.459999 4278255615
64.860001 35.599998 56.32 4278255615
64.839996 35.740002 56.5 4278255615
64.830002 35.990002 56.549999 4278255615
65.349998 34.099998 50.200001 4278255615
65.330002 34.32 50.310001 4278255615
65.309998 34.380001 50.579998 4278255615
65.300003 34.580002 50.700001 4278255615
65.290001 34.91 50.689999 4278255615
65.269997 35.009998 50.900002 4278255615
65.260002 35.290001 50.939999 4278255615
65.239998 35.540001 51.009998 4278255615
65.230003 35.919998 50.959999 4278255615
65.230003 36.459999 50.75 4278255615
65.089996 35.279999 53.469997 4278255615
65.050003 34.43 54.619999 4278255615
65.029999 34.540001 54.82 4278255615
65.019997 34.869999 54.809998 4278255615
65.029999 35.740002 54.279999 4278255615
64.989998 34.970001 55.309998 4278255615
64.959999 34.700001 55.869999 4278255615
64.970001 35.740002 55.189999 4278255615
64.93 35.150002 56.049999 4278255615
64.910004 35.139999 56.369999 4278255615
64.910004 35.759998 56.09 4278255615
64.889999 35.669998 56.469997 4278255615
64.870003 35.880001 56.57 4278255615
64.959999 34.200001 50.150002 4278255615
64.940002 34.360001 50.299999 4278255615
64.93 34.470001 50.529999 4278255615
64.910004 34.630001 50.68 4278255615
64.900002 34.950001 50.68 4278255615
64.879997 35.060001 50.889999 4278255615
64.870003 35.349998 50.93 4278255615
64.860001 35.669998 50.919998 4278255615
64.849998 36.080002 50.829998 4278255615
64.839996 36.52 50.720001 4278255615
64.75 35.369999 52.809998 4278255615
64.739998 35.419998 53.079998 4278255615
64.709999 35.080002 53.709999 4278255615
64.68 34.52 54.549999 4278255615
64.660004 34.580002 54.799999 4278255615
64.639999 34.57 55.110001 4278255615
64.620003 34.310001 55.669998 4278255615
64.599998 34.48 55.809998 4278255615
64.589996 34.66 55.950001 4278255615
64.57 34.689999 56.209999 4278255615
64.550003 34.810001 56.399998 4278255615
64.540001 34.880001 56.630001 4278255615
64.529999 35.34 56.489998 4278255615
64.519997 35.689999 56.469997 4278255615
64.489998 35.470001 56.98 4278255615
64.739998 34.25 50.25 4278255615
64.720001 34.509998 50.310001 4278255615
64.699997 34.509998 50.619999 4278255615
64.690002 34.740002 50.720001 4278255615
64.68 35.099998 50.68 4278255615
64.669998 35.549999 50.560001 4278255615
64.660004 35.790001 50.639999 4278255615
64.650002 35.900002 50.84 4278255615
64.629997 35.98 51.09 4278255615
64.580002 35.43 52.259998 4278255615
64.519997 35.220001 53.41 4278255615
64.480003 34.560001 54.349998 4278255615
64.470001 34.59 54.630001 4278255615
64.440002 34.41 55.099998 4278255615
64.43 34.59 55.239998 4278255615
64.410004 34.419998 55.709999 4278255615
64.389999 34.470001 55.969997 4278255615
64.379997 34.549999 56.189999 4278255615
64.360001 34.57 56.450001 4278255615
64.360001 35.439999 55.939999 4278255615
64.339996 35.200001 56.459999 4278255615
64.330002 35.759998 56.25 4278255615
64.309998 35.630001 56.669998 4278255615
64.300003 36.029999 56.610001 4278255615
64.849998 34.310001 50.32 4278255615
64.839996 34.490002 50.459999 4278255615
64.82 34.59 50.689999 4278255615
64.809998 34.900002 50.709999 4278255615
64.800003 35.220001 50.689999 4278255615
64.790001 35.52 50.709999 4278255615
64.779999 35.66 50.900002 4278255615
64.769997 36.209999 50.66 4278255615
64.760002 36.369999 50.829998 4278255615
64.709999 35.43 52.09 4278255615
64.690002 35.43 52.41 4278255615
64.669998 35.400002 52.739998 4278255615
64.650002 35.290001 53.149998 4278255615
64.629997 35.200001 53.549999 4278255615
64.589996 34.5 54.529999 4278255615
64.580002 34.779999 54.579998 4278255615
64.559998 34.619999 55.040001 4278255615
64.529999 34.290001 55.66 4278255615
64.519997 34.529999 55.73 4278255615
64.5 34.5 56.049999 4278255615
64.470001 34.810001 56.360001 4278255615
64.459999 35.009998 56.469997 4278255615
64.449997 35.349998 56.469997 4278255615
64.440002 35.75 56.399998 4278255615
64.419998 35.509998 56.91 4278255615
65.029999 34.189999 50.23 4278255615
65.019997 34.41 50.310001 4278255615
65 34.419998 50.639999 4278255615
64.980003 34.66 50.700001 4278255615
64.980003 35.060001 50.630001 4278255615
64.959999 35.080002 50.939999 4278255615
64.940002 35.32 51.02 4278255615
64.93 35.650002 51.009998 4278255615
64.93 36.209999 50.759998 4278255615
64.919998 36.610001 50.700001 4278255615
64.800003 35.389999 53.169998 4278255615
64.769997 34.91 53.939999 4278255615
64.739998 34.560001 54.579998 4278255615
64.720001 34.630001 54.82 4278255615
64.699997 34.470001 55.27 4278255615
64.68 34.48 55.579998 4278255615
64.660004 34.490002 55.869999 4278255615
64.639999 34.459999 56.200001 4278255615
64.629997 34.799999 56.169998 4278255615
64.610001 34.830002 56.43 4278255615
64.589996 34.900002 56.68 4278255615
64.580002 35.169998 56.709999 4278255615
64.57 35.610001 56.610001 4278255615
64.580002 34.330002 50.290001 4278255615
64.57 34.549999 50.380001 4278255615
64.550003 34.59 50.669998 4278255615
64.529999 34.880001 50.700001 4278255615
64.529999 35.5 50.41 4278255615
64.519997 35.73 50.489998 4278255615
64.5 35.860001 50.68 4278255615
64.489998 36.169998 50.700001 4278255615
64.480003 36.43 50.75 4278255615
64.32 34.169998 54.540001 4278255615
64.309998 34.299999 54.719997 4278255615
64.290001 34.290001 55.029999 4278255615
64.279999 34.599998 55.049999 4278255615
64.25 34.48 55.469997 4278255615
64.239998 34.880001 55.399998 4278255615
64.220001 34.580002 55.98 4278255615
64.209999 35.130001 55.759998 4278255615
64.199997 35.200001 55.989998 4278255615
64.18 35.360001 56.139999 4278255615
64.18 36.009998 55.829998 4278255615
64.150002 35.57 56.549999 4278255615
64.129997 35.450001 56.959999 4278255615
64.129997 36.299999 56.469997 4278255615
63.959999 34.279999 50.209999 4278255615
63.950001 34.5 50.299999 4278255615
63.93 34.619999 50.5 4278255615
63.91 34.73 50.73 4278255615
63.900002 35.049999 50.73 4278255615
63.889999 35.259998 50.84 4278255615
63.869999 35.34 51.07 4278255615
63.860001 35.66 51.07 4278255615
63.849998 35.889999 51.16 4278255615
63.84 36.540001 50.84 4278255615
63.700001 34.759998 54.459999 4278255615
63.689999 34.959999 54.579998 4278255615
63.77 34.34 50.299999 4278255615
63.759998 34.610001 50.34 4278255615
63.740002 34.619999 50.650002 4278255615
63.73 34.869999 50.720001 4278255615
63.709999 35.049999 50.849998 4278255615
63.700001 35.27 50.959999 4278255615
63.689999 35.450001 51.110001 4278255615
63.68 35.759998 51.130001 4278255615
63.66 36.029999 51.169998 4278255615
63.82 34.330002 50.220001 4278255615
63.810001 34.540001 50.329998 4278255615
63.790001 34.619999 50.560001 4278255615
63.779999 34.779999 50.720001 4278255615
63.77 35.09 50.73 4278255615
63.75 35.169998 50.959999 4278255615
63.740002 35.389999 51.07 4278255615
63.720001 35.689999 51.099998 4278255615
63.709999 35.98 51.130001 4278255615
63.700001 36.419998 51.02 4278255615
63.549999 34.990002 54.59 4278255615
63.990002 34.290001 50.220001 4278255615
63.98 34.509998 50.329998 4278255615
63.959999 34.560001 50.610001 4278255615
63.939999 34.779999 50.700001 4278255615
63.93 35.07 50.720001 4278255615
63.919998 35.279999 50.84 4278255615
63.900002 35.349998 51.079998 4278255615
63.889999 35.66 51.09 4278255615
63.880001 35.970001 51.110001 4278255615
63.869999 36.540001 50.869999 4278255615
63.709999 34.75 54.5 4278255615
63.700001 34.990002 54.579998 4278255615
63.619999 35.610001 55.5 4278255615
63.52 34.439999 50.279999 4278255615
63.509998 34.650002 50.380001 4278255615
63.490002 34.709999 50.650002 4278255615
63.48 34.939999 50.73 4278255615
63.459999 35.009998 50.989998 4278255615
63.450001 35.310001 51.02 4278255615
63.439999 35.59 51.060001 4278255615
63.419998 35.82 51.150002 4278255615
63.41 36.189999 51.09 4278255615
63.889999 36.169998 56.16 4278255615
63.799999 35.66 55.989998 4278255615
63.759998 35.470001 55.849998 4278255615
63.77 35.610001 55.43 4278255615
63.73 35.450001 55.25 4278255615
63.610001 34.889999 54.509998 4278255615
63.709999 36.189999 51.150002 4278255615
63.639999 35.82 51.16 4278255615
63.59 35.52 51.110001 4278255615
63.540001 35.23 51.049999 4278255615
63.5 35.040001 50.91 4278255615
63.459999 34.860001 50.739998 4278255615
63.439999 34.759998 50.52 4278255615
63.400002 34.610001 50.349998 4278255615
64.110001 36.220001 56.59 4278255615
64.07 36.029999 56.450001 4278255615
64.010002 35.650002 56.469997 4278255615
63.970001 35.509998 55.969997 4278255615
63.91 35.169998 55.950001 4278255615
63.939999 35.509998 55.369999 4278255615
63.880001 35.16 55.360001 4278255615
63.91 35.43 54.82 4278255615
63.889999 35.330002 54.59 4278255615
63.84 35.099998 54.48 4278255615
63.77 34.650002 54.559998 4278255615
63.869999 35.98 51.18 4278255615
63.82 35.669998 51.139999 4278255615
63.759998 35.349998 51.119999 4278255615
63.720001 35.099998 51.02 4278255615
63.700001 35.049999 50.75 4278255615
63.650002 34.77 50.68 4278255615
63.619999 34.68 50.43 4278255615
63.580002 34.470001 50.299999 4278255615
63.349998 36.18 51.099998 4278255615
63.290001 35.84 51.079998 4278255615
63.23 35.5 51.079998 4278255615
63.169998 35.139999 51.079998 4278255615
64.18 36.439999 56.279999 4278255615
64.050003 35.57 56.719997 4278255615
64.050003 35.599998 56.380001 4278255615
63.970001 35.25 56.07 4278255615
63.950001 35.150002 55.860001 4278255615
63.939999 35.389999 54.739998 4278255615
63.900002 35.220001 54.579998 4278255615
63.84 34.860001 54.579998 4278255615
63.790001 34.529999 54.549999 4278255615
63.970001 36.5 50.919998 4278255615
63.880001 35.889999 51.139999 4278255615
63.82 35.580002 51.110001 4278255615
63.77 35.310001 51.040001 4278255615
63.73 35.080002 50.93 4278255615
63.700001 34.970001 50.709999 4278255615
63.66 34.75 50.59 4278255615
63.630001 34.630001 50.369999 4278255615
63.580002 34.380001 50.27 4278255615
64.620003 35.650002 56.939999 4278255615
64.599998 35.580002 56.689999 4278255615
64.559998 35.34 56.599998 4278255615
64.489998 34.939999 56.630001 4278255615
64.470001 34.849998 56.399998 4278255615
64.440002 34.740002 56.189999 4278255615
64.410004 34.599998 56.009998 4278255615
64.440002 34.889999 55.459999 4278255615
64.360001 34.369999 55.599998 4278255615
64.360001 34.459999 55.23 4278255615
64.360001 34.52 54.860001 4278255615
64.309998 34.27 54.77 4278255615
64.300003 34.259998 54.459999 4278255615
64.519997 36.330002 50.720001 4278255615
64.470001 36.040001 50.66 4278255615
64.440002 35.900002 50.48 4278255615
64.400002 35.689999 50.349998 4278255615
64.279999 34.919998 50.720001 4278255615
64.230003 34.639999 50.66 4278255615
64.220001 34.619999 50.349998 4278255615
64.160004 34.32 50.299999 4278255615
64.279999 35.599998 56.709999 4278255615
64.230003 35.360001 56.619999 4278255615
64.209999 35.27 56.389999 4278255615
64.220001 35.459999 55.919998 4278255615
64.150002 35.049999 55.950001 4278255615
64.089996 34.650002 56 4278255615
64.120003 34.959999 55.439999 4278255615
64.059998 34.619999 55.419998 4278255615
64.019997 34.529999 54.889999 4278255615
64 34.48 54.619999 4278255615
64.220001 36.669998 50.790001 4278255615
64.120003 36.07 51.009998 4278255615
64.07 35.759998 50.959999 4278255615
64.010002 35.400002 50.970001 4278255615
64 35.400002 50.66 4278255615
63.93 34.970001 50.720001 4278255615
63.869999 34.639999 50.709999 4278255615
63.860001 34.650002 50.369999 4278255615
63.810001 34.389999 50.290001 4278255615
63.400002 36.130001 51.110001 4278255615
63.330002 35.740002 51.139999 4278255615
63.27 35.349998 51.16 4278255615
63.220001 35.060001 51.099998 4278255615
63.439999 36.130001 51.110001 4278255615
63.369999 35.720001 51.16 4278255615
63.32 35.459999 51.09 4278255615
63.259998 35.110001 51.09 4278255615
64.550003 35.57 56.950001 4278255615
64.540001 35.560001 56.639999 4278255615
64.480003 35.18 56.66 4278255615
64.449997 35.080002 56.439999 4278255615
64.389999 34.720001 56.450001 4278255615
64.360001 34.610001 56.25 4278255615
64.339996 34.549999 55.989998 4278255615
64.370003 34.830002 55.459999 4278255615
64.300003 34.400002 55.52 4278255615
64.279999 34.400002 55.209999 4278255615
64.25 34.279999 55 4278255615
64.239998 34.290001 54.689999 4278255615
64.209999 34.099998 54.559998 4278255615
64.470001 36.610001 50.739998 4278255615
64.410004 36.25 50.75 4278255615
64.370003 36.049999 50.619999 4278255615
64.349998 35.970001 50.360001 4278255615
64.300003 35.689999 50.290001 4278255615
64.18 34.860001 50.720001 4278255615
64.129997 34.610001 50.630001 4278255615
64.110001 34.57 50.34 4278255615
64.059998 34.330002 50.25 4278255615
65.260002 35.810001 56.419998 4278255615
65.25 35.82 56.110001 4278255615
65.239998 35.790001 55.849998 4278255615
65.110001 35.18 55.130001 4278255615
65.129997 35.389999 54.639999 4278255615
65.040001 34.82 54.829998 4278255615
64.980003 34.490002 54.82 4278255615
65.099998 35.869999 51.07 4278255615
65.050003 35.610001 50.989998 4278255615
64.980003 35.18 51.049999 4278255615
64.970001 35.169998 50.739998 4278255615
64.910004 34.84 50.709999 4278255615
64.860001 34.529999 50.68 4278255615
64.849998 34.529999 50.360001 4278255615
64.800003 34.27 50.27 4278255615
65.139999 35.900002 56.709999 4278255615
65.110001 35.790001 56.5 4278255615
65.099998 35.759998 56.219997 4278255615
65.110001 35.919998 55.790001 4278255615
65 35.189999 56.099998 4278255615
64.889999 34.59 55.989998 4278255615
64.870003 34.490002 55.779999 4278255615
64.839996 34.549999 54.82 4278255615
64.830002 34.529999 54.529999 4278255615
64.980003 36.200001 50.84 4278255615
64.889999 35.619999 51.040001 4278255615
64.849998 35.43 50.880001 4278255615
64.809998 35.200001 50.77 4278255615
64.760002 34.91 50.73 4278255615
64.709999 34.610001 50.669998 4278255615
64.690002 34.59 50.380001 4278255615
64.639999 34.299999 50.32 4278255615
64.470001 35.560001 56.950001 4278255615
64.459999 35.59 56.630001 4278255615
64.419998 35.369999 56.52 4278255615
64.400002 35.290001 56.279999 4278255615
64.290001 34.57 56.599998 4278255615
64.279999 34.599998 56.27 4278255615
64.279999 34.669998 55.899998 4278255615
64.349998 35.34 55.009998 4278255615
64.220001 34.419998 55.509998 4278255615
64.209999 34.459999 55.18 4278255615
64.169998 34.290001 55.02 4278255615
64.18 34.439999 54.579998 4278255615
64.370003 36.59 50.779999 4278255615
64.309998 36.23 50.790001 4278255615
64.269997 36.060001 50.619999 4278255615
64.25 35.959999 50.380001 4278255615
64.190002 35.639999 50.349998 4278255615
64.080002 34.900002 50.709999 4278255615
64.040001 34.630001 50.639999 4278255615
64.010002 34.560001 50.380001 4278255615
63.970001 34.360001 50.25 4278255615
64.25 35.560001 56.969997 4278255615
64.25 35.610001 56.639999 4278255615
64.190002 35.279999 56.610001 4278255615
64.190002 35.380001 56.23 4278255615
64.160004 35.27 56.02 4278255615
64.120003 35.099998 55.860001 4278255615
64.080002 34.900002 55.719997 4278255615
64.099998 35.139999 55.219997 4278255615
64.050003 34.84 55.18 4278255615
63.970001 34.439999 54.91 4278255615
63.959999 34.5 54.549999 4278255615
64.120003 36.560001 50.84 4278255615
64.029999 35.950001 51.060001 4278255615
63.970001 35.59 51.07 4278255615
63.919998 35.27 51.029999 4278255615
63.889999 35.18 50.799999 4278255615
63.849998 34.950001 50.700001 4278255615
63.799999 34.650002 50.639999 4278255615
63.779999 34.619999 50.349998 4278255615
63.73 34.389999 50.239998 4278255615
64.879997 36.029999 56.619999 4278255615
64.830002 35.740002 56.549999 4278255615
64.760002 35.34 56.599998 4278255615
64.699997 34.98 56.610001 4278255615
64.68 34.900002 56.369999 4278255615
64.660004 34.869999 56.099998 4278255615
64.610001 34.549999 56.059998 4278255615
64.580002 34.43 55.860001 4278255615
64.559998 34.380001 55.59 4278255615
64.57 34.560001 55.139999 4278255615
64.529999 34.43 54.639999 4278255615
64.610001 35.09 53.759998 4278255615
64.629997 35.400002 53.169998 4278255615
64.620003 35.43 52.82 4278255615
64.610001 35.419998 52.509998 4278255615
64.650002 36.07 50.989998 4278255615
64.620003 35.860001 50.849998 4278255615
64.599998 35.849998 50.540001 4278255615
64.559998 35.59 50.450001 4278255615
64.459999 34.93 50.720001 4278255615
64.410004 34.619999 50.689999 4278255615
64.389999 34.630001 50.369999 4278255615
64.339996 34.310001 50.329998 4278255615
65.389999 35.560001 56.349998 4278255615
65.360001 35.389999 56.18 4278255615
65.300003 35.080002 56.149998 4278255615
65.339996 35.43 55.540001 4278255615
65.279999 35.060001 55.540001 4278255615
65.25 34.869999 55.399998 4278255615
65.25 35.009998 54.98 4278255615
65.199997 34.639999 55 4278255615
65.199997 34.77 54.57 4278255615
65.220001 34.98 54.079998 4278255615
65.349998 36.439999 50.880001 4278255615
65.279999 35.98 50.98 4278255615
65.220001 35.57 51.02 4278255615
65.160004 35.18 51.040001 4278255615
65.139999 35.110001 50.790001 4278255615
65.089996 34.880001 50.68 4278255615
65.040001 34.549999 50.66 4278255615
65.029999 34.52 50.369999 4278255615
64.989998 34.279999 50.27 4278255615
65.379997 35.720001 56.299999 4278255615
65.330002 35.389999 56.27 4278255615
65.290001 35.18 56.139999 4278255615
65.260002 35.09 55.599998 4278255615
65.25 35.099998 55.279999 4278255615
65.230003 35.07 55.009998 4278255615
65.150002 34.610001 54.790001 4278255615
65.18 34.880001 54.25 4278255615
65.25 36.02 51.040001 4278255615
65.18 35.57 51.110001 4278255615
65.139999 35.34 50.989998 4278255615
65.099998 35.09 50.900002 4278255615
65.080002 35 50.66 4278255615
65.019997 34.610001 50.700001 4278255615
64.989998 34.490002 50.489998 4278255615
64.949997 34.310001 50.329998 4278255615
64.720001 35.799999 56.669998 4278255615
64.690002 35.650002 56.489998 4278255615
64.610001 35.139999 56.610001 4278255615
64.57 34.900002 56.52 4278255615
64.529999 34.689999 56.41 4278255615
64.510002 34.639999 56.149998 4278255615
64.470001 34.439999 56.02 4278255615
64.440002 34.290001 55.84 4278255615
64.440002 34.439999 55.399998 4278255615
64.440002 34.52 55.02 4278255615
64.440002 34.610001 54.639999 4278255615
64.400002 34.389999 54.529999 4278255615
64.57 36.5 50.77 4278255615
64.519997 36.209999 50.709999 4278255615
64.480003 35.950001 50.619999 4278255615
64.449997 35.869999 50.380001 4278255615
64.379997 35.400002 50.48 4278255615
64.290001 34.77 50.73 4278255615
64.25 34.619999 50.540001 4278255615
64.230003 34.5 50.329998 4278255615
64.190002 34.279999 50.220001 4278255615
64.339996 35.59 57 4278255615
64.330002 35.57 56.709999 4278255615
64.279999 35.34 56.599998 4278255615
64.300003 35.610001 56.079998 4278255615
64.269997 35.5 55.869999 4278255615
64.199997 34.98 56.009998 4278255615
64.139999 34.619999 56.02 4278255615
64.120003 34.57 55.75 4278255615
64.099998 34.540001 55.469997 4278255615
64.080002 34.549999 55.149998 4278255615
64.050003 34.43 54.959999 4278255615
64.040001 34.450001 54.639999 4278255615
64.029999 34.470001 54.309998 4278255615
64.199997 36.66 50.790001 4278255615
64.110001 36.02 51.060001 4278255615
64.059998 35.700001 51.02 4278255615
64.010002 35.380001 50.989998 4278255615
63.990002 35.360001 50.689999 4278255615
63.93 34.98 50.709999 4278255615
63.869999 34.639999 50.689999 4278255615
63.860001 34.630001 50.380001 4278255615
63.810001 34.400002 50.279999 4278255615
64.82 35.799999 56.579998 4278255615
64.75 35.380001 56.630001 4278255615
64.690002 34.939999 56.689999 4278255615
64.660004 34.860001 56.469997 4278255615
64.660004 34.970001 56.079998 4278255615
64.599998 34.580002 56.099998 4278255615
64.589996 34.59 55.799999 4278255615
64.559998 34.490002 55.579998 4278255615
64.57 34.66 55.119999 4278255615
64.57 34.779999 54.709999 4278255615
64.510002 34.43 54.709999 4278255615
64.550003 34.82 54.059998 4278255615
64.599998 35.389999 53.25 4278255615
64.639999 36.259998 50.880001 4278255615
64.589996 35.98 50.82 4278255615
64.550003 35.77 50.68 4278255615
64.529999 35.689999 50.439999 4278255615
64.43 35.029999 50.720001 4278255615
64.370003 34.669998 50.720001 4278255615
64.360001 34.66 50.400002 4278255615
64.309998 34.380001 50.34 4278255615
64.279999 34.23 50.16 4278255615
65.5 35.509998 56.32 4278255615
65.480003 35.389999 56.119999 4278255615
65.419998 35.040001 56.110001 4278255615
65.43 35.200001 55.68 4278255615
65.360001 34.77 55.739998 4278255615
65.330002 34.57 55.59 4278255615
65.32 34.599998 55.259998 4278255615
65.309998 34.619999 54.939999 4278255615
65.440002 36.369999 50.880001 4278255615
65.360001 35.790001 51.079998 4278255615
65.300003 35.470001 51.049999 4278255615
65.25 35.110001 51.049999 4278255615
65.239998 35.150002 50.68 4278255615
65.18 34.77 50.709999 4278255615
65.129997 34.450001 50.68 4278255615
65.120003 34.459999 50.349998 4278255615
65.07 34.220001 50.25 4278255615
65.669998 35.48 56.34 4278255615
65.639999 35.290001 56.200001 4278255615
65.610001 35.139999 56.029999 4278255615
65.599998 35.16 55.700001 4278255615
65.529999 34.740002 55.759998 4278255615
65.5 34.59 55.59 4278255615
65.5 34.709999 55.169998 4278255615
65.510002 34.900002 54.700001 4278255615
65.449997 34.450001 54.779999 4278255615
65.599998 36.27 50.970001 4278255615
65.529999 35.810001 51.07 4278255615
65.459999 35.43 51.079998 4278255615
65.419998 35.150002 51.02 4278255615
65.389999 35.02 50.810001 4278255615
65.349998 34.830002 50.650002 4278255615
65.290001 34.450001 50.68 4278255615
65.269997 34.419998 50.389999 4278255615
65.230003 34.200001 50.279999 4278255615
65.139999 35.82 56.860001 4278255615
65.110001 35.759998 56.599998 4278255615
65.089996 35.709999 56.34 4278255615
64.980003 35.040001 56.299999 4278255615
65.110001 36.189999 55.029999 4278255615
64.910004 34.66 56.029999 4278255615
64.889999 34.610001 55.759998 4278255615
64.870003 34.830002 54.66 4278255615
64.830002 34.610001 54.540001 4278255615
64.839996 34.799999 54.07 4278255615
64.879997 35.32 53.299999 4278255615
64.940002 36.459999 50.689999 4278255615
64.879997 36.049999 50.75 4278255615
64.800003 35.540001 50.880001 4278255615
64.769997 35.380001 50.700001 4278255615
64.709999 35.040001 50.68 4278255615
64.650002 34.689999 50.689999 4278255615
64.620003 34.529999 50.529999 4278255615
64.580002 34.389999 50.329998 4278255615
64.550003 34.23 50.16 4278255615
64.650002 35.650002 57.049999 4278255615
64.650002 35.91 56.23 4278255615
64.540001 35.150002 56.57 4278255615
64.5 34.93 56.450001 4278255615
64.449997 34.66 56.380001 4278255615
64.43 34.599998 56.130001 4278255615
64.400002 34.459999 55.950001 4278255615
64.370003 34.330002 55.759998 4278255615
64.339996 34.389999 55.09 4278255615
64.32 34.34 54.82 4278255615
64.290001 34.27 54.59 4278255615
64.440002 36.459999 50.759998 4278255615
64.389999 36.220001 50.650002 4278255615
64.360001 36.060001 50.48 4278255615
64.32 35.900002 50.299999 4278255615
64.239998 35.310001 50.509998 4278255615
64.150002 34.73 50.720001 4278255615
64.120003 34.59 50.529999 4278255615
64.089996 34.470001 50.310001 4278255615
64.050003 34.279999 50.169998 4278255615
65.099998 35.82 56.799999 4278255615
65.07 35.75 56.559998 4278255615
65.059998 35.810001 56.209999 4278255615
65.059998 35.919998 55.82 4278255615
64.940002 34.990002 56.299999 4278255615
64.860001 34.580002 56.029999 4278255615
64.839996 34.490002 55.809998 4278255615
64.809998 34.529999 55.169998 4278255615
64.82 34.700001 54.719997 4278255615
64.779999 34.529999 54.559998 4278255615
64.800003 34.84 53.969997 4278255615
64.849998 35.380001 53.18 4278255615
64.889999 36.349998 50.739998 4278255615
64.830002 36.009998 50.709999 4278255615
64.779999 35.73 50.639999 4278255615
64.75 35.57 50.48 4278255615
64.660004 34.939999 50.73 4278255615
64.610001 34.619999 50.700001 4278255615
64.589996 34.560001 50.439999 4278255615
64.540001 34.310001 50.34 4278255615
66.050003 35.950001 55.68 4278255615
66.029999 35.880001 55.439999 4278255615
66 35.669998 55.32 4278255615
65.940002 35.32 55.309998 4278255615
65.860001 34.799999 55.459999 4278255615
65.870003 34.939999 55.029999 4278255615
65.809998 34.599998 55.009998 4278255615
65.82 34.73 54.579998 4278255615
65.910004 36.130001 51.130001 4278255615
65.860001 35.849998 51.079998 4278255615
65.809998 35.540001 51.040001 4278255615
65.75 35.119999 51.09 4278255615
65.709999 34.93 50.950001 4278255615
65.690002 34.860001 50.68 4278255615
65.629997 34.470001 50.709999 4278255615
65.610001 34.389999 50.459999 4278255615
65.580002 34.23 50.290001 4278255615
66.139999 35.099998 55.040001 4278255615
66.190002 36.290001 51.16 4278255615
66.139999 35.990002 51.110001 4278255615
66.089996 35.720001 51.029999 4278255615
66.040001 35.380001 51.02 4278255615
65.980003 35.029999 51.009998 4278255615
65.980003 35.110001 50.619999 4278255615
65.900002 34.630001 50.720001 4278255615
65.860001 34.389999 50.630001 4278255615
65.849998 34.389999 50.310001 4278255615
65.809998 34.16 50.200001 4278255615
65.370003 35.669998 56.239998 4278255615
65.32 35.459999 56.110001 4278255615
65.300003 35.57 55.399998 4278255615
65.220001 35 55.59 4278255615
65.239998 35.25 55.07 4278255615
65.220001 35.290001 54.73 4278255615
65.129997 34.599998 55.029999 4278255615
65.099998 34.509998 54.790001 4278255615
65.150002 35.060001 53.989998 4278255615
65.120003 35.860001 51.079998 4278255615
65.07 35.52 51.060001 4278255615
65.019997 35.200001 51.029999 4278255615
64.989998 35.16 50.759998 4278255615
64.949997 34.889999 50.68 4278255615
64.889999 34.540001 50.68 4278255615
64.870003 34.5 50.389999 4278255615
64.82 34.27 50.27 4278255615
64.720001 35.860001 56.790001 4278255615
64.68 35.66 56.66 4278255615
64.610001 35.240002 56.719997 4278255615
64.559998 34.939999 56.669998 4278255615
64.540001 34.869999 56.43 4278255615
64.510002 34.75 56.23 4278255615
64.470001 34.580002 56.07 4278255615
64.449997 34.549999 55.779999 4278255615
64.410004 34.360001 55.649998 4278255615
64.389999 34.389999 55.329998 4278255615
64.379997 34.450001 54.969997 4278255615
64.349998 34.290001 54.799999 4278255615
64.330002 34.310001 54.48 4278255615
64.440002 36.389999 50.75 4278255615
64.389999 36.139999 50.650002 4278255615
64.349998 35.98 50.470001 4278255615
64.309998 35.779999 50.32 4278255615
64.209999 35 50.720001 4278255615
64.160004 34.66 50.709999 4278255615
64.129997 34.599998 50.439999 4278255615
64.089996 34.360001 50.349998 4278255615
65.160004 35.950001 56.82 4278255615
65.120003 35.790001 56.639999 4278255615
65.099998 35.75 56.369999 4278255615
65.120003 36.009998 55.860001 4278255615
65 35.07 56.360001 4278255615
64.919998 34.709999 56.059998 4278255615
64.989998 35.75 54.23 4278255615
64.830002 34.57 54.649998 4278255615
64.82 34.689999 54.239998 4278255615
64.919998 36.5 50.75 4278255615
64.870003 36.150002 50.73 4278255615
64.800003 35.689999 50.829998 4278255615
64.769997 35.599998 50.579998 4278255615
64.709999 35.139999 50.68 4278255615
64.639999 34.720001 50.73 4278255615
64.610001 34.52 50.599998 4278255615
64.580002 34.470001 50.329998 4278255615
64.540001 34.23 50.23 4278255615
66.269997 36.259998 51.139999 4278255615
66.209999 35.919998 51.119999 4278255615
66.169998 35.669998 51.040001 4278255615
66.120003 35.32 51.029999 4278255615
66.07 35.029999 50.970001 4278255615
66.059998 35.009998 50.669998 4278255615
65.989998 34.619999 50.700001 4278255615
65.949997 34.369999 50.599998 4278255615
65.93 34.34 50.299999 4278255615
65.889999 34.110001 50.189999 4278255615
66.800003 36.099998 51.16 4278255615
66.730003 35.650002 51.25 4278255615
66.660004 35.25 51.279999 4278255615
66.620003 35 51.18 4278255615
66.580002 34.75 51.079998 4278255615
66.580002 34.860001 50.66 4278255615
66.519997 34.450001 50.73 4278255615
66.480003 34.27 50.57 4278255615
66.459999 34.240002 50.279999 4278255615
66.43 34.040001 50.139999 4278255615
66.169998 35.169998 55.059998 4278255615
66.139999 36.119999 51.099998 4278255615
66.089996 35.810001 51.049999 4278255615
66.040001 35.490002 51.02 4278255615
65.980003 35.169998 50.989998 4278255615
65.949997 35 50.82 4278255615
65.910004 34.810001 50.66 4278255615
65.849998 34.419998 50.700001 4278255615
65.830002 34.369999 50.439999 4278255615
65.790001 34.189999 50.279999 4278255615
65.639999 35.41 56.360001 4278255615
65.610001 35.34 56.110001 4278255615
65.57 35.119999 56 4278255615
65.529999 34.919998 55.860001 4278255615
65.480003 34.66 55.779999 4278255615
65.459999 34.549999 55.559998 4278255615
65.470001 34.84 55.009998 4278255615
65.489998 35.119999 54.469997 4278255615
65.389999 34.43 54.759998 4278255615
65.480003 36.299999 50.91 4278255615
65.400002 35.75 51.09 4278255615
65.349998 35.400002 51.079998 4278255615
65.290001 35.080002 51.040001 4278255615
65.269997 35.02 50.77 4278255615
65.230003 34.790001 50.669998 4278255615
65.169998 34.450001 50.669998 4278255615
65.150002 34.450001 50.34 4278255615
65.110001 34.240002 50.220001 4278255615
66.190002 35.970001 55.759998 4278255615
66 34.860001 55.48 4278255615
66 34.959999 55.079998 4278255615
66.019997 36.299999 51.099998 4278255615
65.959999 35.93 51.099998 4278255615
65.919998 35.650002 51.040001 4278255615
65.849998 35.25 51.07 4278255615
65.809998 34.990002 50.98 4278255615
65.790001 34.970001 50.68 4278255615
65.730003 34.599998 50.689999 4278255615
65.690002 34.41 50.549999 4278255615
65.669998 34.299999 50.329998 4278255615
65.629997 34.130001 50.18 4278255615
67 35.5 51.34 4278255615
66.959999 35.290001 51.200001 4278255615
66.900002 34.91 51.23 4278255615
66.879997 34.830002 50.98 4278255615
66.849998 34.689999 50.779999 4278255615
66.809998 34.439999 50.68 4278255615
66.769997 34.259998 50.529999 4278255615
66.760002 34.220001 50.25 4278255615
66.720001 34.009998 50.110001 4278255615
67.489998 35.73 51.040001 4278255615
67.440002 35.41 51.009998 4278255615
67.370003 35.02 51.049999 4278255615
