# .PCD v0.7 - Point Cloud Data file format
VERSION 0.7
FIELDS x y z rgb
SIZE 4 4 4 4
TYPE F F F U
COUNT 1 1 1 1
WIDTH 1255
HEIGHT 1
VIEWPOINT 0 0 0 1 0 0 0
POINTS 1255
DATA ascii
75.059998 35.189999 50.459999 4278190335
74.730003 33 56.579998 4278190335
74.75 33.150002 55.739998 4278190335
74.800003 33.09 54.540001 4278190335
74.779999 33.299999 54.82 4278190335
74.790001 33.43 54.68 4278190335
74.769997 33.619999 54.860001 4278190335
74.769997 33.77 54.799999 4278190335
74.959999 32.98 50.139999 4278190335
74.940002 33.209999 50.529999 4278190335
74.940002 33.369999 50.52 4278190335
74.709999 34.459999 56.119999 4278190335
74.940002 33.540001 50.489998 4278190335
74.709999 34.57 55.889999 4278190335
74.940002 33.650002 50.189999 4278190335
74.809998 34.32 53.349998 4278190335
74.940002 33.82 50.189999 4278190335
74.93 34 50.299999 4278190335
74.730003 34.939999 55.27 4278190335
74.93 34.139999 50.110001 4278190335
74.760002 34.939999 54.25 4278190335
74.93 34.299999 50.099998 4278190335
74.790001 34.970001 53.419998 4278190335
74.93 34.470001 50.130001 4278190335
74.919998 34.630001 50.079998 4278190335
74.910004 34.830002 50.34 4278190335
74.900002 35 50.369999 4278190335
74.900002 35.189999 50.48 4278190335
75 32.830002 55.32 4278190335
74.970001 33.119999 56.049999 4278190335
75.019997 33.34 54.68 4278190335
75.220001 32.860001 50 4278190335
75.209999 33.07 50.299999 4278190335
74.989998 34.009998 54.919998 4278190335
75.190002 33.279999 50.5 4278190335
75.010002 34.080002 54.369999 4278190335
75.190002 33.439999 50.5 4278190335
75.010002 34.23 54.32 4278190335
75.18 33.619999 50.540001 4278190335
75.169998 33.82 50.75 4278190335
74.959999 34.700001 55.329998 4278190335
75.160004 33.98 50.75 4278190335
75.18 34.080002 50.360001 4278190335
74.959999 34.98 55.119999 4278190335
75.150002 34.32 50.84 4278190335
75.160004 34.459999 50.650002 4278190335
75 35.119999 53.959999 4278190335
75.139999 34.650002 50.810001 4278190335
75.139999 34.810001 50.799999 4278190335
75.150002 34.919998 50.439999 4278190335
75.150002 35.099998 50.509998 4278190335
75.139999 35.25 50.43 4278190335
75.099998 33.060001 55.110001 4278190335
75.110001 33.150002 54.759998 4278190335
75.080002 33.700001 55.23 4278190335
75.330002 32.810001 50.029999 4278190335
75.32 33 50.150002 4278190335
75.099998 33.91 54.549999 4278190335
75.300003 33.23 50.540001 4278190335
75.089996 34.099998 54.809998 4278190335
75.290001 33.389999 50.52 4278190335
75.07 34.299999 55.09 4278190335
75.279999 33.580002 50.669998 4278190335
75.059998 34.490002 55.27 4278190335
75.279999 33.759998 50.709999 4278190335
75.269997 33.93 50.810001 4278190335
75.099998 34.630001 54.149998 4278190335
75.269997 34.099998 50.779999 4278190335
75.019997 35.029999 55.719997 4278190335
75.260002 34.27 50.790001 4278190335
75.029999 35.139999 55.380001 4278190335
75.25 34.439999 50.810001 4278190335
75.080002 35.130001 54.32 4278190335
75.25 34.599998 50.84 4278190335
75.25 34.740002 50.700001 4278190335
75.25 34.900002 50.669998 4278190335
75.25 35.049999 50.529999 4278190335
75.25 35.209999 50.5 4278190335
74.779999 32.970001 56.59 4278190335
74.839996 32.880001 55.279999 4278190335
74.82 33.09 55.529999 4278190335
74.849998 33.119999 54.849998 4278190335
74.849998 33.259998 54.709999 4278190335
74.839996 33.419998 54.739998 4278190335
74.82 33.639999 55.099998 4278190335
74.82 33.779999 55 4278190335
75.050003 32.939999 50.099998 4278190335
75.029999 33.18 50.509998 4278190335
74.879997 33.84 53.509998 4278190335
75.029999 33.34 50.489998 4278190335
74.75 34.450001 56.239998 4278190335
75.019997 33.509998 50.52 4278190335
74.779999 34.509998 55.649998 4278190335
75.019997 33.66 50.439999 4278190335
74.879997 34.310001 53.399998 4278190335
75.010002 33.860001 50.619999 4278190335
74.879997 34.439999 53.209999 4278190335
75 34.02 50.540001 4278190335
74.779999 34.93 55.399998 4278190335
75.010002 34.150002 50.400002 4278190335
74.82 34.91 54.27 4278190335
75.010002 34.279999 50.150002 4278190335
74.849998 34.959999 53.489998 4278190335
75 34.490002 50.450001 4278190335
74.809998 35.25 54.419998 4278190335
75 34.610001 50.169998 4278190335
74.849998 35.27 53.5 4278190335
74.989998 34.810001 50.369999 4278190335
74.980003 34.990002 50.439999 4278190335
74.980003 35.16 50.439999 4278190335
74.379997 32.669998 56.209999 4278190335
74.379997 32.799999 56.110001 4278190335
74.379997 32.970001 56.149998 4278190335
74.389999 33.029999 55.639999 4278190335
74.410004 33.119999 55.23 4278190335
74.410004 33.259998 55.16 4278190335
74.43 33.290001 54.489998 4278190335
74.410004 33.540001 54.98 4278190335
74.349998 34.02 56.009998 4278190335
74.599998 33.029999 50.16 4278190335
74.360001 34.150002 55.799999 4278190335
74.580002 33.259998 50.5 4278190335
74.309998 34.459999 56.77 4278190335
74.580002 33.419998 50.450001 4278190335
74.330002 34.52 56.23 4278190335
74.580002 33.560001 50.299999 4278190335
74.32 34.709999 56.459999 4278190335
74.589996 33.689999 50.139999 4278190335
74.459999 34.32 53.009998 4278190335
74.410004 34.630001 53.989998 4278190335
74.379997 34.880001 54.579998 4278190335
74.559998 34.220001 50.310001 4278190335
74.57 34.360001 50.110001 4278190335
74.559998 34.529999 50.130001 4278190335
74.559998 34.689999 50.099998 4278190335
74.540001 34.900002 50.450001 4278190335
74.529999 35.07 50.489998 4278190335
74.529999 35.240002 50.52 4278190335
74.370003 32.68 56.259998 4278190335
74.370003 32.810001 56.079998 4278190335
74.360001 32.98 56.200001 4278190335
74.379997 33.049999 55.719997 4278190335
74.389999 33.139999 55.309998 4278190335
74.389999 33.27 55.16 4278190335
74.419998 33.290001 54.41 4278190335
74.389999 33.560001 55.09 4278190335
74.610001 32.849998 50.009998 4278190335
74.599998 33.049999 50.200001 4278190335
74.349998 34.16 55.82 4278190335
74.580002 33.27 50.509998 4278190335
74.300003 34.459999 56.73 4278190335
74.580002 33.43 50.48 4278190335
74.330002 34.52 56.119999 4278190335
74.580002 33.57 50.290001 4278190335
74.309998 34.720001 56.41 4278190335
74.589996 33.700001 50.099998 4278190335
74.449997 34.330002 53 4278190335
74.410004 34.630001 53.919998 4278190335
74.379997 34.880001 54.509998 4278190335
74.57 34.220001 50.290001 4278190335
74.57 34.360001 50.110001 4278190335
74.57 34.529999 50.079998 4278190335
74.559998 34.700001 50.110001 4278190335
74.540001 34.900002 50.400002 4278190335
74.540001 35.080002 50.5 4278190335
74.529999 35.25 50.5 4278190335
74.599998 32.830002 56.259998 4278190335
74.580002 33.029999 56.469997 4278190335
74.620003 33.049999 55.739998 4278190335
74.610001 33.34 55.630001 4278190335
74.639999 33.400002 55.049999 4278190335
74.68 33.380001 54.07 4278190335
74.650002 33.650002 54.709999 4278190335
74.879997 32.84 50.02 4278190335
74.650002 33.77 54.509998 4278190335
74.870003 33.040001 50.200001 4278190335
74.660004 33.880001 54.259998 4278190335
74.849998 33.25 50.470001 4278190335
74.849998 33.41 50.450001 4278190335
74.690002 34.110001 53.649998 4278190335
74.589996 34.580002 55.59 4278190335
74.849998 33.689999 50.099998 4278190335
74.849998 33.860001 50.099998 4278190335
74.589996 34.84 55.349998 4278190335
74.839996 34.029999 50.150002 4278190335
74.599998 34.970001 55.130001 4278190335
74.599998 35.09 54.959999 4278190335
74.839996 34.349998 50.09 4278190335
74.57 35.32 55.41 4278190335
74.830002 34.52 50.099998 4278190335
74.82 34.700001 50.209999 4278190335
74.809998 34.900002 50.389999 4278190335
74.809998 35.060001 50.380001 4278190335
74.800003 35.240002 50.48 4278190335
74.660004 32.849998 56.309998 4278190335
74.650002 33.040001 56.48 4278190335
74.660004 33.110001 56.049999 4278190335
74.690002 33.310001 55.419998 4278190335
74.709999 33.389999 55 4278190335
74.739998 33.43 54.309998 4278190335
74.709999 33.68 54.84 4278190335
74.959999 32.849998 50 4278190335
74.720001 33.77 54.399998 4278190335
74.940002 33.049999 50.18 4278190335
74.919998 33.27 50.48 4278190335
74.919998 33.43 50.489998 4278190335
74.75 34.130001 53.75 4278190335
74.919998 33.560001 50.279999 4278190335
74.919998 33.720001 50.23 4278190335
74.919998 33.869999 50.139999 4278190335
74.650002 34.869999 55.389999 4278190335
74.910004 34.07 50.290001 4278190335
74.660004 34.990002 55.169998 4278190335
74.650002 35.139999 55.16 4278190335
74.910004 34.360001 50.079998 4278190335
74.900002 34.540001 50.169998 4278190335
74.889999 34.720001 50.259998 4278190335
74.879997 34.91 50.439999 4278190335
74.879997 35.080002 50.43 4278190335
74.870003 35.25 50.470001 4278190335
74.379997 32.689999 56.27 4278190335
74.379997 32.810001 56.119999 4278190335
74.370003 32.970001 56.16 4278190335
74.389999 33.049999 55.719997 4278190335
74.419998 33.09 55.099998 4278190335
74.419998 33.240002 55.049999 4278190335
74.440002 33.310001 54.509998 4278190335
74.410004 33.549999 54.98 4278190335
74.410004 33.689999 54.889999 4278190335
74.650002 32.849998 49.98 4278190335
74.639999 33.040001 50.150002 4278190335
74.360001 34.139999 55.73 4278190335
74.620003 33.259998 50.459999 4278190335
74.300003 34.470001 56.809998 4278190335
74.620003 33.41 50.419998 4278190335
74.330002 34.509998 56.130001 4278190335
74.620003 33.560001 50.310001 4278190335
74.32 34.68 56.209999 4278190335
74.629997 33.689999 50.07 4278190335
74.480003 34.330002 53 4278190335
74.610001 34.360001 50.119999 4278190335
74.599998 34.529999 50.110001 4278190335
74.599998 34.689999 50.099998 4278190335
74.580002 34.91 50.400002 4278190335
74.57 35.09 50.5 4278190335
74.57 35.25 50.48 4278190335
74.190002 32.759998 56.290001 4278190335
74.209999 32.830002 55.849998 4278190335
74.220001 32.939999 55.57 4278190335
74.230003 33.049999 55.309998 4278190335
74.239998 33.150002 55.009998 4278190335
74.220001 33.360001 55.299999 4278190335
74.279999 33.27 53.919998 4278190335
74.279999 33.439999 53.959999 4278190335
74.269997 33.59 53.919998 4278190335
74.470001 32.919998 49.989998 4278190335
74.190002 34.040001 55.630001 4278190335
74.449997 33.119999 50.189999 4278190335
74.279999 33.860001 53.579998 4278190335
74.43 33.349998 50.540001 4278190335
74.139999 34.490002 56.450001 4278190335
74.169998 34.529999 55.790001 4278190335
74.43 33.66 50.43 4278190335
74.440002 33.77 50.119999 4278190335
74.43 33.939999 50.099998 4278190335
74.209999 34.82 54.669998 4278190335
74.43 34.099998 50.099998 4278190335
74.419998 34.279999 50.18 4278190335
74.400002 34.490002 50.439999 4278190335
74.400002 34.650002 50.349998 4278190335
74.400002 34.810001 50.400002 4278190335
74.389999 34.98 50.439999 4278190335
74.379997 35.16 50.509998 4278190335
74.379997 35.32 50.529999 4278190335
74.129997 32.73 56.360001 4278190335
74.150002 32.790001 55.869999 4278190335
74.150002 32.950001 55.860001 4278190335
74.18 33.110001 55.029999 4278190335
74.230003 33.09 54.02 4278190335
74.230003 33.23 53.860001 4278190335
74.190002 33.5 54.540001 4278190335
74.209999 33.59 54.189999 4278190335
74.410004 32.880001 50.02 4278190335
74.400002 33.09 50.239998 4278190335
74.129997 34.139999 55.549999 4278190335
74.379997 33.299999 50.57 4278190335
74.139999 34.240002 55.239998 4278190335
74.379997 33.459999 50.509998 4278190335
74.199997 34.189999 53.98 4278190335
74.370003 33.619999 50.459999 4278190335
74.129997 34.57 55.32 4278190335
74.389999 33.740002 50.150002 4278190335
74.139999 34.689999 55.139999 4278190335
74.379997 33.889999 50.079998 4278190335
74.160004 34.77 54.669998 4278190335
74.379997 34.060001 50.119999 4278190335
74.370003 34.240002 50.189999 4278190335
74.129997 35.139999 55.009998 4278190335
74.339996 34.48 50.739998 4278190335
74.339996 34.630001 50.579998 4278190335
74.339996 34.790001 50.560001 4278190335
74.339996 34.950001 50.450001 4278190335
74.339996 35.110001 50.450001 4278190335
74.330002 35.279999 50.52 4278190335
74.260002 32.77 56.389999 4278190335
74.300003 32.77 55.579998 4278190335
74.290001 32.919998 55.549999 4278190335
74.360001 32.830002 54.209999 4278190335
74.300003 33.169998 55.200001 4278190335
74.309998 33.290001 54.98 4278190335
74.300003 33.470001 55.09 4278190335
74.370003 33.380001 53.66 4278190335
74.559998 32.91 50.02 4278190335
74.25 34.060001 55.82 4278190335
74.550003 33.09 50.110001 4278190335
74.230003 34.27 56.139999 4278190335
74.529999 33.330002 50.509998 4278190335
74.209999 34.470001 56.469997 4278190335
74.519997 33.490002 50.5 4278190335
74.230003 34.540001 55.93 4278190335
74.529999 33.77 50.150002 4278190335
74.360001 34.439999 53.32 4278190335
74.300003 34.759998 54.389999 4278190335
74.529999 34.09 50.099998 4278190335
74.519997 34.27 50.18 4278190335
74.519997 34.43 50.119999 4278190335
74.510002 34.59 50.150002 4278190335
74.489998 34.790001 50.349998 4278190335
74.480003 34.970001 50.459999 4278190335
74.480003 35.150002 50.509998 4278190335
74.470001 35.310001 50.52 4278190335
74.129997 32.720001 56.34 4278190335
74.150002 32.779999 55.829998 4278190335
74.150002 32.919998 55.75 4278190335
74.18 32.970001 55.139999 4278190335
74.169998 33.119999 55.110001 4278190335
74.239998 33.060001 53.880001 4278190335
74.239998 33.200001 53.77 4278190335
74.190002 33.5 54.57 4278190335
74.190002 33.630001 54.459999 4278190335
74.419998 32.869999 50.029999 4278190335
74.120003 34 55.649998 4278190335
74.410004 33.07 50.169998 4278190335
74.120003 34.139999 55.559998 4278190335
74.389999 33.299999 50.529999 4278190335
74.139999 34.25 55.27 4278190335
74.389999 33.459999 50.470001 4278190335
74.199997 34.189999 53.98 4278190335
74.379997 33.619999 50.470001 4278190335
74.120003 34.59 55.48 4278190335
74.389999 33.740002 50.239998 4278190335
74.129997 34.700001 55.169998 4278190335
74.389999 33.889999 50.07 4278190335
74.389999 34.049999 50.07 4278190335
74.139999 34.959999 54.84 4278190335
74.379997 34.240002 50.189999 4278190335
74.120003 35.150002 55.07 4278190335
74.349998 34.48 50.68 4278190335
74.349998 34.630001 50.549999 4278190335
74.349998 34.77 50.41 4278190335
74.349998 34.939999 50.470001 4278190335
74.339996 35.099998 50.43 4278190335
74.330002 35.27 50.489998 4278190335
73.940002 32.830002 54.139999 4278190335
73.949997 32.93 53.869999 4278190335
73.860001 33.41 55.649998 4278190335
73.940002 33.259998 53.889999 4278190335
73.860001 33.68 55.389999 4278190335
74.129997 32.919998 50.02 4278190335
73.800003 34.169998 56.41 4278190335
73.800003 34.299999 56.290001 4278190335
73.849998 34.299999 55.419998 4278190335
74.089996 33.490002 50.509998 4278190335
74.089996 33.66 50.509998 4278190335
73.830002 34.630001 55.52 4278190335
74.089996 33.810001 50.380001 4278190335
74.059998 34.049999 50.84 4278190335
73.940002 34.59 53.239998 4278190335
74.059998 34.200001 50.720001 4278190335
74.050003 34.380001 50.849998 4278190335
73.879997 35.040001 54.119999 4278190335
74.050003 34.540001 50.799999 4278190335
73.839996 35.310001 54.849998 4278190335
74.050003 34.700001 50.790001 4278190335
74.040001 34.860001 50.77 4278190335
74.040001 35.02 50.77 4278190335
74.040001 35.150002 50.5 4278190335
74.040001 35.32 50.52 4278190335
73.489998 33.18 53.869999 4278190335
73.660004 33 50.029999 4278190335
73.650002 33.189999 50.18 4278190335
73.419998 34.16 55.029999 4278190335
73.620003 33.419998 50.529999 4278190335
73.620003 33.59 50.560001 4278190335
73.620003 33.740002 50.48 4278190335
73.449997 34.459999 53.91 4278190335
73.589996 34.130001 50.829998 4278190335
73.589996 34.27 50.720001 4278190335
73.419998 34.990002 54.329998 4278190335
73.599998 34.41 50.549999 4278190335
73.419998 35.130001 54.189999 4278190335
73.599998 34.560001 50.43 4278190335
73.419998 35.27 54.09 4278190335
73.580002 34.759998 50.669998 4278190335
73.57 34.950001 50.810001 4278190335
73.57 35.110001 50.779999 4278190335
73.580002 35.23 50.48 4278190335
73.57 35.389999 50.470001 4278190335
73.230003 33.07 53.849998 4278190335
73.190002 33.639999 54.380001 4278190335
73.379997 33.060001 50.02 4278190335
73.370003 33.25 50.18 4278190335
73.349998 33.48 50.549999 4278190335
73.339996 33.630001 50.52 4278190335
73.330002 33.82 50.650002 4278190335
73.32 34.02 50.82 4278190335
73.32 34.18 50.77 4278190335
73.309998 34.349998 50.860001 4278190335
73.309998 34.509998 50.829998 4278190335
73.300003 34.669998 50.779999 4278190335
73.300003 34.82 50.73 4278190335
73.300003 34.98 50.709999 4278190335
73.300003 35.130001 50.57 4278190335
73.300003 35.27 50.369999 4278190335
73.290001 35.439999 50.470001 4278190335
73.050003 32.889999 53.969997 4278190335
73.199997 33.029999 50.029999 4278190335
73.190002 33.209999 50.139999 4278190335
73.169998 33.43 50.489998 4278190335
73.169998 33.610001 50.549999 4278190335
73.160004 33.77 50.549999 4278190335
73.150002 33.970001 50.77 4278190335
73.139999 34.16 50.889999 4278190335
73.139999 34.310001 50.82 4278190335
73.139999 34.459999 50.700001 4278190335
73.129997 34.619999 50.709999 4278190335
73.120003 34.810001 50.849998 4278190335
73.120003 34.950001 50.75 4278190335
73.120003 35.110001 50.709999 4278190335
73.129997 35.240002 50.450001 4278190335
73.120003 35.41 50.48 4278190335
73.139999 32.869999 53.989998 4278190335
73.150002 33 53.829998 4278190335
73.300003 33.169998 50.110001 4278190335
73.269997 33.41 50.560001 4278190335
73.269997 33.580002 50.549999 4278190335
73.269997 33.75 50.549999 4278190335
73.260002 33.93 50.689999 4278190335
73.25 34.110001 50.779999 4278190335
73.239998 34.279999 50.82 4278190335
73.239998 34.43 50.759998 4278190335
73.239998 34.59 50.689999 4278190335
73.230003 34.779999 50.82 4278190335
73.230003 34.93 50.720001 4278190335
73.220001 35.09 50.739998 4278190335
73.239998 35.189999 50.279999 4278190335
73.230003 35.380001 50.450001 4278190335
73.099998 32.900002 53.969997 4278190335
73.099998 33.049999 53.919998 4278190335
73.25 33.209999 50.16 4278190335
73.230003 33.439999 50.549999 4278190335
73.230003 33.610001 50.509998 4278190335
73.220001 33.779999 50.560001 4278190335
73.209999 33.970001 50.779999 4278190335
73.199997 34.150002 50.849998 4278190335
73.190002 34.310001 50.82 4278190335
73.199997 34.459999 50.689999 4278190335
73.190002 34.639999 50.779999 4278190335
73.18 34.810001 50.810001 4278190335
73.190002 34.93 50.57 4278190335
73.18 35.099998 50.610001 4278190335
73.190002 35.240002 50.419998 4278190335
73.18 35.41 50.470001 4278190335
72.959999 33.169998 50.079998 4278190335
72.949997 33.400002 50.389999 4278190335
72.940002 33.580002 50.509998 4278190335
72.93 33.73 50.470001 4278190335
72.919998 33.93 50.669998 4278190335
72.910004 34.119999 50.860001 4278190335
72.900002 34.279999 50.790001 4278190335
72.900002 34.450001 50.790001 4278190335
72.900002 34.59 50.630001 4278190335
72.910004 34.73 50.470001 4278190335
72.779999 34.110001 50.689999 4278190335
72.779999 33.98 50.549999 4278190335
72.779999 33.790001 50.549999 4278190335
72.790001 33.599998 50.560001 4278190335
72.790001 33.450001 50.450001 4278190335
72.779999 33.360001 50.200001 4278190335
72.779999 33.220001 50.07 4278190335
73.339996 34.27 54.25 4278190335
73.32 34.110001 53.759998 4278190335
73.059998 35.459999 50.529999 4278190335
73.080002 35.18 50.73 4278190335
73.099998 34.950001 50.84 4278190335
73.110001 34.740002 50.900002 4278190335
73.110001 34.57 50.84 4278190335
73.120003 34.389999 50.849998 4278190335
73.129997 34.200001 50.849998 4278190335
73.129997 34.049999 50.73 4278190335
73.120003 33.91 50.59 4278190335
73.129997 33.75 50.529999 4278190335
73.139999 33.560001 50.560001 4278190335
73.129997 33.419998 50.419998 4278190335
73.120003 33.330002 50.18 4278190335
73.120003 33.189999 50.049999 4278190335
73.739998 34.23 56.41 4278190335
73.559998 35.060001 54.059998 4278190335
73.739998 33.380001 55.889999 4278190335
73.580002 34.060001 53.84 4278190335
73.32 35.470001 50.470001 4278190335
73.339996 35.169998 50.720001 4278190335
73.360001 34.91 50.869999 4278190335
73.370003 34.740002 50.84 4278190335
73.360001 34.619999 50.68 4278190335
73.379997 34.400002 50.759998 4278190335
73.389999 34.16 50.880001 4278190335
73.400002 33.990002 50.84 4278190335
73.379997 33.919998 50.540001 4278190335
73.389999 33.720001 50.57 4278190335
73.400002 33.540001 50.549999 4278190335
73.400002 33.369999 50.509998 4278190335
73.379997 33.310001 50.18 4278190335
73.379997 33.18 50.040001 4278190335
73.839996 34.200001 56.649998 4278190335
73.809998 34.189999 56.25 4278190335
73.769997 34.259998 55.66 4278190335
73.620003 34.950001 53.630001 4278190335
73.660004 34.439999 53.969997 4278190335
73.82 33.439999 55.91 4278190335
73.68 34.060001 54 4278190335
73.75 33.529999 54.84 4278190335
73.400002 35.34 50.5 4278190335
73.419998 35.080002 50.650002 4278190335
73.440002 34.84 50.77 4278190335
73.43 34.740002 50.560001 4278190335
73.699997 33.23 53.82 4278190335
73.459999 34.450001 50.810001 4278190335
73.470001 34.25 50.84 4278190335
73.480003 34.049999 50.889999 4278190335
73.470001 33.939999 50.689999 4278190335
73.470001 33.799999 50.540001 4278190335
73.480003 33.610001 50.560001 4278190335
73.480003 33.419998 50.549999 4278190335
73.459999 33.369999 50.209999 4278190335
73.470001 33.200001 50.18 4278190335
73.459999 33.07 50.029999 4278190335
73.769997 35.279999 54.700001 4278190335
73.919998 34.310001 56.48 4278190335
73.919998 34.150002 56.450001 4278190335
73.870003 34.299999 55.689999 4278190335
73.849998 33.98 55.169998 4278190335
73.849998 33.810001 55.139999 4278190335
73.879997 33.529999 55.369999 4278190335
73.830002 33.619999 54.73 4278190335
73.5 35.400002 50.489998 4278190335
73.519997 35.099998 50.75 4278190335
73.540001 34.849998 50.889999 4278190335
73.510002 34.849998 50.43 4278190335
73.540001 34.580002 50.630001 4278190335
73.559998 34.279999 50.889999 4278190335
73.809998 32.860001 53.93 4278190335
73.57 34.110001 50.829998 4278190335
73.559998 33.98 50.700001 4278190335
73.550003 33.880001 50.489998 4278190335
73.57 33.66 50.549999 4278190335
73.57 33.490002 50.540001 4278190335
73.57 33.349998 50.41 4278190335
73.559998 33.25 50.169998 4278190335
73.550003 33.119999 50.02 4278190335
73.849998 35.299999 54.77 4278190335
73.989998 34.279999 56.27 4278190335
73.93 34.32 55.34 4278190335
73.830002 34.389999 53.889999 4278190335
73.959999 33.560001 55.439999 4278190335
73.980003 33.32 55.579998 4278190335
73.580002 35.43 50.52 4278190335
73.610001 35.139999 50.77 4278190335
74.010002 32.869999 55.799999 4278190335
73.620003 34.889999 50.919998 4278190335
73.599998 34.860001 50.529999 4278190335
73.870003 33.299999 53.849998 4278190335
73.620003 34.610001 50.650002 4278190335
73.629997 34.41 50.689999 4278190335
73.889999 32.93 53.91 4278190335
73.629997 34.279999 50.560001 4278190335
73.650002 34 50.779999 4278190335
73.639999 33.919998 50.509998 4278190335
73.639999 33.75 50.470001 4278190335
73.650002 33.529999 50.540001 4278190335
73.660004 33.349998 50.509998 4278190335
73.639999 33.299999 50.18 4278190335
73.639999 33.150002 50.099998 4278190335
73.639999 32.98 50.040001 4278190335
74.199997 34.43 56.709999 4278190335
74.120003 34.700001 55.66 4278190335
74.089996 34.709999 55.219997 4278190335
74.07 34.700001 54.849998 4278190335
74.089996 34.450001 55.009998 4278190335
73.980003 34.720001 53.529999 4278190335
74.089996 34 54.790001 4278190335
74.040001 34.139999 54 4278190335
74.190002 33.189999 55.849998 4278190335
73.769997 35.400002 50.549999 4278190335
74.239998 32.779999 56.389999 4278190335
73.790001 35.139999 50.73 4278190335
74.199997 32.869999 55.77 4278190335
73.809998 34.919998 50.810001 4278190335
74.18 32.84 55.399998 4278190335
73.82 34.709999 50.860001 4278190335
74.059998 33.290001 53.869999 4278190335
73.82 34.529999 50.829998 4278190335
74.07 33.099998 53.880001 4278190335
73.830002 34.360001 50.779999 4278190335
73.830002 34.169998 50.790001 4278190335
73.849998 33.93 50.900002 4278190335
73.82 33.950001 50.389999 4278190335
73.839996 33.720001 50.509998 4278190335
73.849998 33.509998 50.560001 4278190335
73.849998 33.330002 50.549999 4278190335
73.830002 33.279999 50.200001 4278190335
73.839996 33.110001 50.139999 4278190335
73.839996 32.959999 50.029999 4278190335
74.389999 34.490002 56.689999 4278190335
74.360001 34.470001 56.32 4278190335
74.25 34.810001 54.700001 4278190335
74.330002 34.240002 55.599998 4278190335
74.209999 34.57 53.98 4278190335
74.230003 34.18 54.049999 4278190335
74.360001 33.360001 55.57 4278190335
74.370003 33.139999 55.639999 4278190335
73.980003 35.259998 50.549999 4278190335
74.389999 32.900002 55.82 4278190335
74.410004 32.689999 55.91 4278190335
74.010002 34.790001 50.810001 4278190335
74.349998 32.810001 55.16 4278190335
74.019997 34.580002 50.84 4278190335
74.25 33.220001 53.739998 4278190335
74.019997 34.400002 50.829998 4278190335
74.290001 32.860001 54.16 4278190335
74.029999 34.209999 50.849998 4278190335
74.269997 32.830002 53.790001 4278190335
74.040001 34.029999 50.810001 4278190335
74.010002 34 50.41 4278190335
74.019997 33.790001 50.459999 4278190335
74.040001 33.580002 50.529999 4278190335
74.050003 33.380001 50.549999 4278190335
74.029999 33.310001 50.279999 4278190335
74.029999 33.169998 50.139999 4278190335
74.029999 33.029999 50.009998 4278190335
74.650002 35.189999 55.139999 4278190335
74.669998 34.91 55.349998 4278190335
74.720001 34.5 55.869999 4278190335
74.620003 34.93 54.459999 4278190335
74.559998 35.139999 53.559998 4278190335
74.57 34.939999 53.599998 4278190335
74.550003 34.759998 53.139999 4278190335
74.699997 33.740002 55.130001 4278190335
74.82 32.950001 56.579998 4278190335
74.589996 34.07 53.469997 4278190335
74.690002 33.360001 54.759998 4278190335
74.699997 33.189999 54.719997 4278190335
74.389999 34.880001 50.619999 4278190335
74.730003 32.860001 55.099998 4278190335
74.400002 34.700001 50.599998 4278190335
74.730003 32.75 54.919998 4278190335
74.389999 34.610001 50.360001 4278190335
74.669998 32.889999 54.119999 4278190335
74.379997 34.509998 50.119999 4278190335
74.650002 32.869999 53.719997 4278190335
74.379997 34.34 50.079998 4278190335
74.389999 34.139999 50.099998 4278190335
74.400002 33.950001 50.110001 4278190335
74.43 33.619999 50.48 4278190335
74.440002 33.419998 50.52 4278190335
74.449997 33.240002 50.48 4278190335
74.43 33.189999 50.130001 4278190335
74.43 33.009998 50.099998 4278190335
75.139999 35.139999 55.91 4278190335
75.139999 35.049999 55.709999 4278190335
75.120003 35.02 55.369999 4278190335
75.099998 34.970001 55.049999 4278190335
75.040001 35.189999 54.119999 4278190335
75.120003 34.43 55.029999 4278190335
75.120003 34.32 54.880001 4278190335
75.150002 33.950001 55.299999 4278190335
75.199997 33.52 55.919998 4278190335
75.07 34.150002 53.989998 4278190335
74.839996 35.220001 50.509998 4278190335
74.839996 35.080002 50.41 4278190335
75.190002 32.880001 55.32 4278190335
74.849998 34.91 50.369999 4278190335
74.839996 34.779999 50.209999 4278190335
74.839996 34.650002 50.079998 4278190335
74.849998 34.459999 50.079998 4278190335
74.860001 34.220001 50.18 4278190335
74.870003 34.040001 50.16 4278190335
74.870003 33.880001 50.099998 4278190335
74.900002 33.549999 50.470001 4278190335
74.910004 33.34 50.509998 4278190335
74.919998 33.169998 50.470001 4278190335
74.900002 33.099998 50.16 4278190335
74.900002 32.970001 50.02 4278190335
75.540001 34.389999 56.16 4278190335
75.529999 34.349998 55.849998 4278190335
75.550003 33.889999 56.079998 4278190335
75.519997 33.799999 55.450001 4278190335
75.550003 33.48 55.77 4278190335
75.550003 33.330002 55.719997 4278190335
75.510002 33.470001 54.950001 4278190335
75.230003 35.060001 50.68 4278190335
75.239998 34.82 50.829998 4278190335
75.25 34.630001 50.799999 4278190335
75.260002 34.400002 50.900002 4278190335
75.260002 34.240002 50.82 4278190335
75.269997 34.09 50.739998 4278190335
75.279999 33.880001 50.799999 4278190335
75.279999 33.73 50.700001 4278190335
75.269997 33.630001 50.48 4278190335
75.279999 33.43 50.52 4278190335
75.279999 33.240002 50.5 4278190335
75.269997 33.16 50.23 4278190335
75.269997 33.02 50.130001 4278190335
75.269997 32.869999 50.029999 4278190335
75.379997 35.23 55.93 4278190335
75.410004 34.619999 56.110001 4278190335
75.400002 34.41 55.77 4278190335
75.389999 34.049999 55.329998 4278190335
75.400002 33.84 55.389999 4278190335
75.389999 33.759998 55.18 4278190335
75.400002 33.540001 55.25 4278190335
75.400002 33.400002 55.16 4278190335
75.379997 33.369999 54.799999 4278190335
75.080002 35.150002 50.52 4278190335
75.099998 34.860001 50.739998 4278190335
75.300003 33.529999 53.509998 4278190335
75.110001 34.669998 50.75 4278190335
75.110001 34.490002 50.720001 4278190335
75.120003 34.290001 50.759998 4278190335
75.129997 34.080002 50.799999 4278190335
75.129997 33.919998 50.739998 4278190335
75.129997 33.77 50.650002 4278190335
75.110001 33.73 50.279999 4278190335
75.139999 33.450001 50.5 4278190335
75.139999 33.259998 50.52 4278190335
75.129997 33.18 50.259998 4278190335
75.129997 33.009998 50.189999 4278190335
75.129997 32.889999 50.02 4278190335
75.18 35.209999 55.869999 4278190335
75.18 35.049999 55.809998 4278190335
75.139999 35.150002 55.169998 4278190335
75.089996 35.150002 54.34 4278190335
75.160004 34.450001 55.119999 4278190335
75.18 34.040001 55.239998 4278190335
75.25 33.52 56.02 4278190335
75.239998 33.43 55.799999 4278190335
74.849998 35.299999 50.48 4278190335
74.849998 35.119999 50.459999 4278190335
75.230003 32.900002 55.399998 4278190335
74.849998 34.970001 50.369999 4278190335
74.849998 34.830002 50.25 4278190335
74.849998 34.68 50.130001 4278190335
74.849998 34.5 50.09 4278190335
74.879997 34.189999 50.400002 4278190335
74.870003 34.110001 50.16 4278190335
74.870003 33.93 50.119999 4278190335
74.900002 33.66 50.349998 4278190335
74.919998 33.400002 50.529999 4278190335
74.919998 33.200001 50.529999 4278190335
74.900002 33.16 50.150002 4278190335
74.900002 33 50.099998 4278190335
74.910004 32.84 50.029999 4278190335
75.169998 35.259998 55.809998 4278190335
75.169998 35.09 55.77 4278190335
75.129997 35.209999 55.07 4278190335
75.080002 35.169998 54.360001 4278190335
75.239998 33.990002 56.239998 4278190335
75.18 34.029999 55.299999 4278190335
75.25 33.5 56.110001 4278190335
75.239998 33.400002 55.93 4278190335
74.839996 35.16 50.41 4278190335
75.220001 32.959999 55.290001 4278190335
74.839996 34.990002 50.349998 4278190335
74.839996 34.849998 50.23 4278190335
74.839996 34.700001 50.130001 4278190335
74.839996 34.52 50.099998 4278190335
74.860001 34.27 50.279999 4278190335
74.849998 34.139999 50.110001 4278190335
74.860001 33.970001 50.079998 4278190335
74.870003 33.73 50.189999 4278190335
74.900002 33.419998 50.5 4278190335
74.910004 33.23 50.5 4278190335
74.889999 33.189999 50.139999 4278190335
74.900002 33 50.150002 4278190335
74.889999 32.860001 50.029999 4278190335
75.550003 34.400002 55.98 4278190335
75.559998 34.200001 56.009998 4278190335
75.540001 34.040001 55.559998 4278190335
75.550003 33.84 55.599998 4278190335
75.199997 35.240002 50.52 4278190335
75.220001 34.970001 50.73 4278190335
75.449997 33.5 53.82 4278190335
75.239998 34.73 50.849998 4278190335
75.230003 34.619999 50.639999 4278190335
75.25 34.349998 50.84 4278190335
75.25 34.169998 50.829998 4278190335
75.25 34.040001 50.700001 4278190335
75.260002 33.810001 50.779999 4278190335
75.260002 33.68 50.650002 4278190335
75.25 33.560001 50.48 4278190335
75.260002 33.349998 50.509998 4278190335
75.260002 33.169998 50.5 4278190335
75.239998 33.119999 50.150002 4278190335
75.25 32.950001 50.099998 4278190335
75.25 32.799999 50 4278190335
75.589996 34.419998 56.009998 4278190335
75.599998 34.25 55.98 4278190335
75.589996 34 55.709999 4278190335
75.599998 33.82 55.73 4278190335
75.519997 34.130001 54.59 4278190335
75.599998 33.360001 55.549999 4278190335
75.239998 35.040001 50.619999 4278190335
75.489998 33.490002 53.91 4278190335
75.260002 34.77 50.810001 4278190335
75.260002 34.630001 50.709999 4278190335
75.279999 34.389999 50.829998 4278190335
75.279999 34.220001 50.77 4278190335
75.279999 34.060001 50.73 4278190335
75.290001 33.860001 50.75 4278190335
75.290001 33.669998 50.720001 4278190335
75.279999 33.580002 50.489998 4278190335
75.279999 33.400002 50.48 4278190335
75.290001 33.209999 50.48 4278190335
75.269997 33.139999 50.169998 4278190335
75.279999 32.970001 50.139999 4278190335
75.269997 32.84 49.98 4278190335
75.360001 35.16 55.880001 4278190335
75.370003 34.669998 55.77 4278190335
75.370003 34.5 55.73 4278190335
75.410004 34.139999 56.139999 4278190335
75.400002 34.040001 55.950001 4278190335
75.370003 34.07 55.459999 4278190335
75.349998 34.040001 55.130001 4278190335
75.349998 33.849998 55.149998 4278190335
75.330002 33.810001 54.799999 4278190335
75.349998 33.540001 55.029999 4278190335
75.349998 33.419998 54.880001 4278190335
75 35.27 50.43 4278190335
75.370003 33.150002 55.09 4278190335
75.010002 35.040001 50.52 4278190335
75.25 33.610001 53.540001 4278190335
75.019997 34.810001 50.619999 4278190335
75.019997 34.650002 50.549999 4278190335
75 34.59 50.239998 4278190335
75.029999 34.299999 50.5 4278190335
75.040001 34.07 50.579998 4278190335
75.050003 33.889999 50.560001 4278190335
75.040001 33.77 50.369999 4278190335
75.050003 33.540001 50.489998 4278190335
75.059998 33.34 50.52 4278190335
75.07 33.16 50.5 4278190335
75.050003 33.099998 50.169998 4278190335
75.040001 32.959999 50.060001 4278190335
75.040001 32.790001 50 4278190335
74.970001 35.07 55.189999 4278190335
75.010002 34.720001 55.57 4278190335
74.870003 35.259998 53.889999 4278190335
74.879997 34.650002 53.619999 4278190335
74.949997 34.110001 54.459999 4278190335
75.019997 33.330002 55.02 4278190335
74.629997 35.220001 50.470001 4278190335
75.040001 33.09 55.16 4278190335
74.629997 35.07 50.380001 4278190335
75.010002 33.07 54.759998 4278190335
74.639999 34.889999 50.349998 4278190335
74.629997 34.75 50.220001 4278190335
74.650002 34.48 50.41 4278190335
74.660004 34.279999 50.439999 4278190335
74.940002 32.790001 53.66 4278190335
74.639999 34.200001 50.150002 4278190335
74.639999 34.049999 50.07 4278190335
74.650002 33.849998 50.099998 4278190335
74.660004 33.619999 50.200001 4278190335
74.690002 33.360001 50.400002 4278190335
74.68 33.23 50.239998 4278190335
74.68 33.080002 50.150002 4278190335
74.669998 32.939999 50.02 4278190335
75.169998 35.110001 55.899998 4278190335
75.150002 35.09 55.549999 4278190335
75.139999 34.98 55.389999 4278190335
75.139999 34.84 55.290001 4278190335
75.040001 35.189999 54.079998 4278190335
75.260002 33.919998 56.59 4278190335
75.209999 34.049999 55.869999 4278190335
75.169998 33.939999 55.27 4278190335
75.199997 33.650002 55.529999 4278190335
75.07 34.139999 53.939999 4278190335
74.790001 35.220001 50.48 4278190335
75.190002 33.110001 55.110001 4278190335
74.790001 35.049999 50.419998 4278190335
75.190002 32.939999 55.07 4278190335
74.790001 34.900002 50.310001 4278190335
74.779999 34.779999 50.150002 4278190335
74.779999 34.619999 50.09 4278190335
74.790001 34.41 50.130001 4278190335
74.800003 34.220001 50.130001 4278190335
74.800003 34.040001 50.099998 4278190335
74.809998 33.849998 50.110001 4278190335
74.839996 33.540001 50.41 4278190335
74.849998 33.32 50.48 4278190335
74.849998 33.189999 50.360001 4278190335
74.839996 33.080002 50.150002 4278190335
74.830002 32.939999 50.02 4278190335
75.489998 34.639999 56.02 4278190335
75.510002 34.380001 56.209999 4278190335
75.489998 34.349998 55.860001 4278190335
75.489998 34.200001 55.790001 4278190335
75.459999 34.040001 55.32 4278190335
75.480003 33.799999 55.459999 4278190335
75.519997 33.450001 55.849998 4278190335
75.5 33.400002 55.549999 4278190335
75.449997 33.48 54.939999 4278190335
75.449997 33.349998 54.809998 4278190335
75.099998 35.139999 50.509998 4278190335
75.120003 34.880001 50.700001 4278190335
75.360001 33.52 53.540001 4278190335
75.129997 34.650002 50.779999 4278190335
75.139999 34.470001 50.75 4278190335
75.139999 34.259998 50.790001 4278190335
75.150002 34.060001 50.829998 4278190335
75.150002 33.900002 50.759998 4278190335
75.150002 33.740002 50.700001 4278190335
75.120003 33.75 50.220001 4278190335
75.150002 33.439999 50.509998 4278190335
75.160004 33.240002 50.529999 4278190335
75.139999 33.150002 50.27 4278190335
75.139999 33.02 50.150002 4278190335
75.139999 32.889999 50.009998 4278190335
75.610001 34.52 55.84 4278190335
75.620003 34.34 55.84 4278190335
75.660004 33.98 56.259998 4278190335
75.629997 33.970001 55.849998 4278190335
75.629997 33.790001 55.849998 4278190335
75.57 33.84 54.899998 4278190335
75.629997 33.369999 55.579998 4278190335
75.559998 33.59 54.630001 4278190335
75.239998 35.040001 50.68 4278190335
75.510002 33.5 53.950001 4278190335
75.25 34.790001 50.82 4278190335
75.25 34.650002 50.73 4278190335
75.269997 34.41 50.860001 4278190335
75.269997 34.240002 50.790001 4278190335
75.269997 34.09 50.720001 4278190335
75.279999 33.869999 50.790001 4278190335
75.279999 33.700001 50.720001 4278190335
75.269997 33.599998 50.5 4278190335
75.269997 33.41 50.52 4278190335
75.279999 33.240002 50.489998 4278190335
75.260002 33.139999 50.239998 4278190335
75.260002 32.990002 50.16 4278190335
75.25 32.869999 50 4278190335
75.300003 35.119999 55.77 4278190335
75.339996 34.630001 56.040001 4278190335
75.269997 34.790001 55.259998 4278190335
75.309998 34.470001 55.57 4278190335
75.360001 34.040001 56.139999 4278190335
75.360001 33.880001 56.099998 4278190335
75.309998 34 55.43 4278190335
75.300003 33.759998 55.139999 4278190335
75.269997 33.580002 54.700001 4278190335
74.900002 35.16 50.450001 4278190335
75.339996 32.93 55.389999 4278190335
74.910004 34.990002 50.41 4278190335
74.900002 34.84 50.32 4278190335
74.900002 34.709999 50.16 4278190335
74.900002 34.529999 50.150002 4278190335
74.940002 34.189999 50.52 4278190335
74.93 34.049999 50.380001 4278190335
74.919998 33.959999 50.119999 4278190335
74.93 33.759998 50.16 4278190335
74.959999 33.43 50.529999 4278190335
74.970001 33.240002 50.529999 4278190335
74.949997 33.169998 50.239998 4278190335
74.949997 33.02 50.139999 4278190335
74.940002 32.869999 50.02 4278190335
75.050003 35.09 56.009998 4278190335
74.989998 35.060001 55.259998 4278190335
75.019997 34.799999 55.439999 4278190335
74.889999 35.240002 54.009998 4278190335
75.019997 34.040001 55.099998 4278190335
74.970001 34.099998 54.540001 4278190335
74.970001 33.950001 54.459999 4278190335
75.029999 33.380001 54.939999 4278190335
74.610001 35.23 50.5 4278190335
75.059998 33.060001 55.290001 4278190335
74.610001 35.080002 50.43 4278190335
75.019997 33.099998 54.75 4278190335
74.620003 34.889999 50.41 4278190335
74.610001 34.779999 50.220001 4278190335
74.639999 34.490002 50.450001 4278190335
74.639999 34.310001 50.43 4278190335
74.949997 32.810001 53.689999 4278190335
74.620003 34.220001 50.18 4278190335
74.620003 34.080002 50.07 4278190335
74.629997 33.869999 50.139999 4278190335
74.650002 33.639999 50.220001 4278190335
74.669998 33.369999 50.439999 4278190335
74.660004 33.259998 50.23 4278190335
74.660004 33.09 50.18 4278190335
74.660004 32.950001 50.040001 4278190335
75.220001 35.110001 55.809998 4278190335
75.120003 35.18 54.43 4278190335
75.309998 33.959999 56.380001 4278190335
75.25 34.09 55.66 4278190335
75.230003 34.049999 55.349998 4278190335
75.300003 33.540001 56.110001 4278190335
75.290001 33.450001 55.919998 4278190335
75.160004 33.889999 54.450001 4278190335
74.809998 35.169998 50.489998 4278190335
75.279999 32.91 55.48 4278190335
74.800003 35.040001 50.329998 4278190335
74.809998 34.869999 50.290001 4278190335
74.800003 34.759998 50.119999 4278190335
74.800003 34.57 50.099998 4278190335
74.82 34.330002 50.23 4278190335
74.82 34.189999 50.119999 4278190335
74.82 34.009998 50.09 4278190335
74.830002 33.810001 50.099998 4278190335
74.870003 33.48 50.470001 4278190335
74.879997 33.279999 50.489998 4278190335
74.849998 33.220001 50.169998 4278190335
74.860001 33.040001 50.150002 4278190335
74.849998 32.900002 50.02 4278190335
75.709999 33.990002 56.459999 4278190335
75.690002 33.919998 56.209999 4278190335
75.470001 35.009998 53.669998 4278190335
75.660004 33.790001 55.68 4278190335
75.669998 33.560001 55.790001 4278190335
75.650002 33.52 55.489998 4278190335
75.580002 33.689999 54.639999 4278190335
75.599998 33.48 54.700001 4278190335
75.230003 35.209999 50.560001 4278190335
75.25 34.93 50.75 4278190335
75.269997 34.720001 50.829998 4278190335
75.25 34.630001 50.59 4278190335
75.279999 34.349998 50.799999 4278190335
75.279999 34.169998 50.799999 4278190335
75.279999 33.990002 50.75 4278190335
75.290001 33.790001 50.779999 4278190335
75.279999 33.68 50.59 4278190335
75.279999 33.540001 50.48 4278190335
75.279999 33.360001 50.459999 4278190335
75.290001 33.16 50.489998 4278190335
75.269997 33.110001 50.16 4278190335
75.269997 32.919998 50.150002 4278190335
75.269997 32.779999 50.02 4278190335
75.82 34.650002 56.169998 4278190335
75.790001 34.16 55.630001 4278190335
75.720001 34.240002 54.630001 4278190335
75.75 33.77 54.889999 4278190335
75.669998 34 53.899998 4278190335
75.68 33.82 53.880001 4278190335
75.389999 35.200001 50.579998 4278190335
75.419998 34.889999 50.849998 4278190335
75.419998 34.73 50.790001 4278190335
75.419998 34.560001 50.75 4278190335
75.410004 34.419998 50.619999 4278190335
75.440002 34.130001 50.900002 4278190335
75.43 34.02 50.700001 4278190335
75.449997 33.790001 50.779999 4278190335
75.449997 33.630001 50.720001 4278190335
75.43 33.540001 50.48 4278190335
75.440002 33.34 50.529999 4278190335
75.440002 33.16 50.48 4278190335
75.419998 33.110001 50.150002 4278190335
75.419998 32.939999 50.099998 4278190335
75.419998 32.77 50.029999 4278190335
75.629997 34.98 55.139999 4278190335
75.75 34.07 56.380001 4278190335
75.75 33.91 56.329998 4278190335
75.720001 33.779999 55.779999 4278190335
75.68 33.669998 55.23 4278190335
75.629997 33.720001 54.66 4278190335
75.589996 33.759998 54.149998 4278190335
75.279999 35.009998 50.689999 4278190335
75.589996 33.450001 54 4278190335
75.300003 34.77 50.799999 4278190335
75.290001 34.650002 50.619999 4278190335
75.309998 34.400002 50.790001 4278190335
75.309998 34.23 50.739998 4278190335
75.32 34.02 50.790001 4278190335
75.330002 33.860001 50.75 4278190335
75.330002 33.68 50.700001 4278190335
75.32 33.580002 50.48 4278190335
75.32 33.389999 50.48 4278190335
75.330002 33.200001 50.5 4278190335
75.300003 33.16 50.130001 4278190335
75.309998 32.959999 50.16 4278190335
75.309998 32.82 50.029999 4278190335
75.610001 34.529999 55.950001 4278190335
75.610001 34.369999 55.899998 4278190335
75.660004 33.98 56.389999 4278190335
75.650002 33.900002 56.169998 4278190335
75.629997 33.82 55.93 4278190335
75.610001 33.779999 55.619999 4278190335
75.620003 33.560001 55.700001 4278190335
75.629997 33.349998 55.759998 4278190335
75.559998 33.529999 54.91 4278190335
75.160004 35.16 50.560001 4278190335
75.18 34.919998 50.709999 4278190335
75.190002 34.68 50.82 4278190335
75.199997 34.509998 50.779999 4278190335
75.199997 34.330002 50.73 4278190335
75.220001 34.09 50.860001 4278190335
75.220001 33.939999 50.77 4278190335
75.220001 33.759998 50.739998 4278190335
75.190002 33.740002 50.349998 4278190335
75.209999 33.490002 50.5 4278190335
75.220001 33.299999 50.5 4278190335
75.220001 33.150002 50.41 4278190335
75.199997 33.060001 50.139999 4278190335
75.190002 32.91 50.040001 4278190335
75.82 34.619999 56.169998 4278190335
75.860001 34 56.380001 4278190335
75.82 34.07 55.790001 4278190335
75.720001 34.220001 54.579998 4278190335
75.760002 33.740002 54.880001 4278190335
75.660004 34.040001 53.73 4278190335
75.68 33.799999 53.869999 4278190335
75.370003 35.169998 50.59 4278190335
75.400002 34.869999 50.829998 4278190335
75.410004 34.700001 50.799999 4278190335
75.419998 34.48 50.849998 4278190335
75.410004 34.349998 50.720001 4278190335
75.43 34.150002 50.779999 4278190335
75.43 33.98 50.709999 4278190335
75.440002 33.759998 50.790001 4278190335
75.43 33.630001 50.639999 4278190335
75.43 33.5 50.489998 4278190335
75.43 33.310001 50.48 4278190335
75.440002 33.150002 50.439999 4278190335
75.410004 33.080002 50.139999 4278190335
75.419998 32.919998 50.07 4278190335
75.419998 32.75 50.009998 4278190335
76.059998 34.810001 54.009998 4278190335
76.040001 34.759998 53.700001 4278190335
76.110001 33.959999 54.27 4278190335
76.080002 33.959999 53.84 4278190335
75.809998 35.099998 50.68 4278190335
76.110001 33.529999 54 4278190335
75.830002 34.860001 50.810001 4278190335
75.830002 34.700001 50.739998 4278190335
75.830002 34.52 50.700001 4278190335
75.839996 34.32 50.720001 4278190335
75.849998 34.119999 50.739998 4278190335
75.860001 33.939999 50.739998 4278190335
75.870003 33.73 50.799999 4278190335
75.870003 33.560001 50.75 4278190335
75.849998 33.490002 50.48 4278190335
75.860001 33.310001 50.43 4278190335
75.870003 33.110001 50.450001 4278190335
75.849998 33.049999 50.130001 4278190335
75.849998 32.869999 50.110001 4278190335
75.839996 32.740002 49.98 4278190335
76.209999 34.32 53.77 4278190335
76.279999 33.84 54.48 4278190335
75.959999 35.040001 50.75 4278190335
75.980003 34.799999 50.869999 4278190335
75.959999 34.73 50.59 4278190335
75.980003 34.450001 50.779999 4278190335
75.989998 34.279999 50.73 4278190335
75.970001 34.189999 50.48 4278190335
76 33.880001 50.810001 4278190335
76.010002 33.700001 50.790001 4278190335
76 33.580002 50.619999 4278190335
75.989998 33.459999 50.450001 4278190335
76 33.259998 50.48 4278190335
76 33.09 50.43 4278190335
75.989998 33 50.16 4278190335
75.989998 32.849998 50.09 4278190335
75.980003 32.700001 49.989998 4278190335
75.949997 34.779999 53.829998 4278190335
75.959999 34.59 53.84 4278190335
76.110001 33.720001 55.43 4278190335
75.970001 34.209999 53.849998 4278190335
76 33.919998 54.119999 4278190335
76 33.619999 53.959999 4278190335
75.709999 34.91 50.849998 4278190335
75.709999 34.740002 50.82 4278190335
75.709999 34.59 50.720001 4278190335
75.709999 34.41 50.68 4278190335
75.709999 34.25 50.599998 4278190335
75.730003 34.009998 50.739998 4278190335
75.739998 33.810001 50.779999 4278190335
75.75 33.630001 50.77 4278190335
75.730003 33.57 50.450001 4278190335
75.730003 33.400002 50.389999 4278190335
75.739998 33.200001 50.419998 4278190335
75.720001 33.119999 50.130001 4278190335
75.720001 32.93 50.150002 4278190335
75.720001 32.810001 49.989998 4278190335
75.730003 35.16 53.779999 4278190335
75.889999 34.299999 55.349998 4278190335
75.830002 34.259998 54.59 4278190335
75.879997 33.869999 55.099998 4278190335
75.879997 33.740002 54.959999 4278190335
75.779999 33.990002 53.93 4278190335
75.779999 33.849998 53.82 4278190335
75.459999 35.200001 50.579998 4278190335
75.489998 34.919998 50.810001 4278190335
75.5 34.740002 50.82 4278190335
75.5 34.560001 50.77 4278190335
75.489998 34.439999 50.599998 4278190335
75.529999 34.130001 50.889999 4278190335
75.519997 34 50.75 4278190335
75.529999 33.790001 50.799999 4278190335
75.540001 33.610001 50.799999 4278190335
75.510002 33.57 50.419998 4278190335
75.519997 33.349998 50.5 4278190335
75.529999 33.189999 50.450001 4278190335
75.5 33.130001 50.110001 4278190335
75.510002 32.91 50.169998 4278190335
75.5 32.790001 50 4278190335
76.099998 34.360001 55.669998 4278190335
76.080002 34.330002 55.349998 4278190335
75.970001 34.639999 54.189999 4278190335
75.93 34.66 53.709999 4278190335
76.110001 33.740002 55.439999 4278190335
76 33.919998 54.139999 4278190335
75.989998 33.639999 53.969997 4278190335
75.699997 34.919998 50.880001 4278190335
75.699997 34.740002 50.849998 4278190335
75.699997 34.599998 50.759998 4278190335
75.690002 34.48 50.579998 4278190335
75.709999 34.25 50.66 4278190335
75.730003 34 50.790001 4278190335
75.730003 33.82 50.799999 4278190335
75.739998 33.639999 50.77 4278190335
75.709999 33.59 50.419998 4278190335
75.709999 33.43 50.369999 4278190335
75.730003 33.200001 50.459999 4278190335
75.709999 33.139999 50.130001 4278190335
75.709999 32.950001 50.119999 4278190335
75.709999 32.810001 50.02 4278190335
76.239998 34.41 53.73 4278190335
76.339996 33.82 54.689999 4278190335
75.989998 34.889999 50.810001 4278190335
75.989998 34.720001 50.759998 4278190335
76 34.52 50.790001 4278190335
76.010002 34.330002 50.779999 4278190335
76.010002 34.169998 50.689999 4278190335
76.010002 34.009998 50.639999 4278190335
76.029999 33.779999 50.77 4278190335
76.040001 33.580002 50.779999 4278190335
76.019997 33.52 50.459999 4278190335
