# .PCD v0.7 - Point Cloud Data file format
VERSION 0.7
FIELDS x y z rgb
SIZE 4 4 4 4
TYPE F F F U
COUNT 1 1 1 1
WIDTH 1275
HEIGHT 1
VIEWPOINT 0 0 0 1 0 0 0
POINTS 1275
DATA ascii
46.509998 38.02 54.709999 4278255360
46.52 37.959999 54.919998 4278255360
46.540001 37.830002 55.049999 4278255360
46.560001 38.09 55.719997 4278255360
46.57 37.939999 55.82 4278255360
46.580002 37.73 55.860001 4278255360
46.84 37.759998 55.009998 4278255360
46.849998 37.639999 55.16 4278255360
46.869999 37.459999 55.219997 4278255360
46.869999 37.650002 55.27 4278255360
46.75 38.130001 55.169998 4278255360
46.759998 37.84 55.099998 4278255360
46.77 37.630001 55.119999 4278255360
46.790001 37.529999 55.299999 4278255360
48.880001 36.529999 55.27 4278255360
48.939999 36.689999 55.149998 4278255360
48.950001 36.529999 55.25 4278255360
48.970001 36.360001 55.34 4278255360
49.349998 37.240002 54.75 4278255360
49.360001 37.07 54.849998 4278255360
49.380001 36.959999 55.029999 4278255360
49.389999 36.73 55.040001 4278255360
49.41 36.689999 55.279999 4278255360
49.439999 36.84 55.790001 4278255360
49.470001 37.099998 56.43 4278255360
49.48 37.040001 56.66 4278255360
49.48 36.580002 56.369999 4278255360
49.490002 36.369999 56.41 4278255360
49.740002 38.080002 54.880001 4278255360
49.75 37.880001 54.91 4278255360
49.740002 37.349998 54.5 4278255360
49.75 37.060001 54.43 4278255360
49.810001 38.23 56.309998 4278255360
49.779999 36.939999 54.899998 4278255360
49.799999 36.860001 55.110001 4278255360
49.82 36.919998 55.509998 4278255360
49.849998 37.139999 56.099998 4278255360
49.849998 36.91 56.09 4278255360
49.880001 37.200001 56.790001 4278255360
49.889999 36.889999 56.68 4278255360
49.919998 36.369999 56.919998 4278255360
49.799999 38.080002 54.709999 4278255360
49.810001 38.02 54.939999 4278255360
49.810001 37.349998 54.360001 4278255360
49.82 37.279999 54.59 4278255360
49.869999 38.220001 56.16 4278255360
49.889999 38.16 56.380001 4278255360
49.860001 36.880001 54.989998 4278255360
49.91 37.619999 56.27 4278255360
49.93 37.830002 56.860001 4278255360
49.93 37.389999 56.59 4278255360
49.93 36.779999 56.099998 4278255360
49.959999 37.09 56.799999 4278255360
49.959999 36.689999 56.579998 4278255360
49.98 36.77 56.989998 4278255360
49.990002 36.470001 56.899998 4278255360
50 36.360001 57.059998 4278255360
49.48 36.959999 54.489998 4278255360
49.52 36.880001 55.029999 4278255360
49.549999 37.169998 55.73 4278255360
49.57 37.18 56.049999 4278255360
49.580002 37 56.110001 4278255360
49.59 36.740002 56.079998 4278255360
49.610001 36.82 56.48 4278255360
49.610001 36.240002 56.040001 4278255360
49.630001 36.32 56.450001 4278255360
49.279999 37.220001 54.68 4278255360
49.290001 37.02 54.719997 4278255360
49.310001 37.049999 55.07 4278255360
49.32 36.709999 54.939999 4278255360
49.34 36.720001 55.25 4278255360
49.369999 36.849998 55.739998 4278255360
49.400002 37.02 56.27 4278255360
49.41 36.919998 56.459999 4278255360
49.419998 36.709999 56.48 4278255360
49.43 36.459999 56.459999 4278255360
49.459999 37.540001 54.52 4278255360
49.48 37.07 54.529999 4278255360
49.5 37.060001 54.84 4278255360
49.540001 37.09 55.5 4278255360
49.560001 37.049999 55.75 4278255360
49.560001 36.57 55.43 4278255360
49.580002 36.57 55.739998 4278255360
49.610001 36.68 56.189999 4278255360
49.619999 36.540001 56.32 4278255360
49.639999 36.360001 56.380001 4278255360
49.73 38.049999 54.93 4278255360
49.720001 37.509998 54.509998 4278255360
49.740002 37.34 54.59 4278255360
49.82 38.169998 56.34 4278255360
49.77 36.790001 54.829998 4278255360
49.790001 36.810001 55.149998 4278255360
49.860001 37.759998 56.709999 4278255360
49.830002 36.84 55.799999 4278255360
49.860001 36.889999 56.169998 4278255360
49.889999 37.16 56.829998 4278255360
49.889999 36.73 56.59 4278255360
49.700001 37.900002 54.93 4278255360
49.689999 37.400002 54.559998 4278255360
49.700001 37.130001 54.52 4278255360
49.77 38.209999 56.27 4278255360
49.75 36.970001 55.239998 4278255360
49.77 36.93 55.509998 4278255360
49.790001 36.93 55.809998 4278255360
49.799999 36.77 55.899998 4278255360
49.849998 37.220001 56.809998 4278255360
49.849998 36.939999 56.73 4278255360
49.310001 37.169998 54.82 4278255360
49.330002 37.009998 54.899998 4278255360
49.34 36.779999 54.91 4278255360
49.349998 36.700001 55.110001 4278255360
49.380001 36.810001 55.559998 4278255360
49.41 36.939999 56.049999 4278255360
49.439999 36.959999 56.389999 4278255360
49.450001 36.849998 56.549999 4278255360
49.459999 36.509998 56.41 4278255360
49.470001 36.349998 56.5 4278255360
49.130001 37.119999 55.209999 4278255360
49.130001 36.759998 55.040001 4278255360
49.139999 36.610001 55.149998 4278255360
49.16 36.5 55.329998 4278255360
49.18 36.360001 55.459999 4278255360
49.23 36.77 56.299999 4278255360
49.25 36.75 56.57 4278255360
49.459999 37.110001 54.82 4278255360
49.490002 36.889999 55.139999 4278255360
49.52 36.959999 55.559998 4278255360
49.540001 36.98 55.889999 4278255360
49.57 37.07 56.32 4278255360
49.580002 36.84 56.309998 4278255360
49.599998 36.740002 56.489998 4278255360
50.099998 38.48 54.709999 4278255360
50.110001 38.349998 54.860001 4278255360
50.130001 38.25 55.029999 4278255360
50.110001 37.48 54.290001 4278255360
50.150002 37.900002 55.18 4278255360
50.169998 37.919998 55.509998 4278255360
50.189999 37.720001 55.549999 4278255360
50.189999 37.279999 55.290001 4278255360
50.240002 37.919998 56.450001 4278255360
50.220001 37.09 55.66 4278255360
50.259998 37.59 56.610001 4278255360
50.27 37.349998 56.599998 4278255360
50.290001 37.389999 56.950001 4278255360
50.310001 37.240002 57.059998 4278255360
50.290001 36.43 56.32 4278255360
50.330002 36.860001 57.189999 4278255360
50.349998 36.73 57.32 4278255360
50.34 36.259998 57.009998 4278255360
50.360001 36.220001 57.259998 4278255360
50.380001 36.07 57.369999 4278255360
50.389999 35.810001 57.34 4278255360
50.34 38.509998 54.700001 4278255360
50.349998 38.16 54.540001 4278255360
50.349998 37.75 54.299999 4278255360
50.389999 38.16 55.16 4278255360
50.41 38.279999 55.630001 4278255360
50.439999 38.400002 56.099998 4278255360
50.439999 37.98 55.84 4278255360
50.459999 38.049999 56.25 4278255360
50.459999 37.59 55.959999 4278255360
50.490002 37.799999 56.540001 4278255360
50.509998 37.799999 56.84 4278255360
50.529999 37.75 57.079998 4278255360
50.529999 37.259998 56.739998 4278255360
50.540001 37.23 57 4278255360
50.529999 36.43 56.27 4278255360
50.57 36.849998 57.119999 4278255360
50.580002 36.709999 57.239998 4278255360
50.59 36.580002 57.360001 4278255360
50.599998 36.169998 57.139999 4278255360
49.830002 38.080002 54.549999 4278255360
49.849998 38.029999 54.799999 4278255360
49.860001 37.799999 54.809998 4278255360
49.849998 37.32 54.459999 4278255360
49.93 38.200001 55.969997 4278255360
49.950001 38.16 56.219997 4278255360
49.91 37.060001 55.079998 4278255360
49.919998 36.869999 55.130001 4278255360
50 37.860001 56.739998 4278255360
50.02 37.810001 56.98 4278255360
50.009998 37.290001 56.599998 4278255360
49.990002 36.599998 56.009998 4278255360
50.040001 36.990002 56.829998 4278255360
50.040001 36.669998 56.719997 4278255360
50.07 36.759998 57.130001 4278255360
50.07 36.41 56.98 4278255360
50.09 36.290001 57.130001 4278255360
50.099998 35.799999 57.099998 4278255360
49.34 37.18 54.669998 4278255360
49.360001 37.049999 54.82 4278255360
49.380001 36.970001 55.02 4278255360
49.389999 36.790001 55.09 4278255360
49.41 36.73 55.329998 4278255360
49.459999 37 56 4278255360
49.490002 37.080002 56.419998 4278255360
49.509998 37.009998 56.619999 4278255360
49.5 36.59 56.369999 4278255360
49.509998 36.360001 56.389999 4278255360
49.509998 36.889999 54.48 4278255360
49.57 36.970001 55.209999 4278255360
49.599998 37.130001 55.739998 4278255360
49.630001 37.16 56.099998 4278255360
49.639999 36.849998 56 4278255360
49.650002 36.709999 56.119999 4278255360
49.68 36.689999 56.399998 4278255360
49.68 36.369999 56.279999 4278255360
49.700001 36.330002 56.529999 4278255360
50.139999 38.439999 54.689999 4278255360
50.150002 38.259998 54.77 4278255360
50.169998 38.130001 54.919998 4278255360
50.150002 37.389999 54.209999 4278255360
50.200001 37.84 55.130001 4278255360
50.240002 37.700001 55.57 4278255360
50.25 37.419998 55.509998 4278255360
50.299999 37.919998 56.489998 4278255360
50.279999 37.049999 55.66 4278255360
50.330002 37.549999 56.619999 4278255360
50.34 37.369999 56.669998 4278255360
50.369999 37.419998 57.049999 4278255360
50.369999 37.130001 56.959999 4278255360
50.360001 36.439999 56.369999 4278255360
50.41 36.880001 57.25 4278255360
50.419998 36.740002 57.380001 4278255360
50.419998 36.240002 57.029999 4278255360
50.439999 36.18 57.239998 4278255360
50.459999 36.110001 57.459999 4278255360
50.27 38.07 54.349998 4278255360
50.279999 37.860001 54.389999 4278255360
50.32 38.16 55.110001 4278255360
50.34 38.119999 55.380001 4278255360
50.380001 38.360001 56.009998 4278255360
50.380001 38.02 55.849998 4278255360
50.380001 37.669998 55.689999 4278255360
50.400002 37.540001 55.829998 4278255360
50.439999 37.779999 56.450001 4278255360
50.450001 37.599998 56.529999 4278255360
50.48 37.619999 56.869999 4278255360
50.48 37.369999 56.84 4278255360
50.5 37.34 57.09 4278255360
50.48 36.540001 56.360001 4278255360
50.52 36.880001 57.099998 4278255360
50.540001 36.740002 57.219997 4278255360
50.549999 36.580002 57.32 4278255360
49.82 38.150002 54.469997 4278255360
49.849998 38.130001 54.759998 4278255360
49.860001 37.970001 54.860001 4278255360
49.84 37.380001 54.369999 4278255360
49.860001 37.310001 54.59 4278255360
49.950001 38.220001 56.119999 4278255360
49.970001 38.110001 56.279999 4278255360
49.91 36.91 55 4278255360
50 37.77 56.459999 4278255360
50.029999 37.84 56.849998 4278255360
50.049999 37.759998 57.049999 4278255360
50.009998 36.93 56.25 4278255360
50.049999 37.169998 56.880001 4278255360
50.040001 36.630001 56.48 4278255360
50.080002 36.759998 56.950001 4278255360
50.09 36.669998 57.139999 4278255360
50.099998 36.349998 57.029999 4278255360
50.119999 35.889999 57.040001 4278255360
49.639999 37.48 54.52 4278255360
49.66 37.360001 54.68 4278255360
49.77 38.119999 56.309998 4278255360
49.720001 37.07 55.209999 4278255360
49.740002 37.080002 55.540001 4278255360
49.77 37.07 55.849998 4278255360
49.77 36.700001 55.669998 4278255360
49.849998 37.139999 56.84 4278255360
49.830002 36.48 56.299999 4278255360
49.849998 36.349998 56.43 4278255360
50.040001 38.59 54.779999 4278255360
50.049999 38.43 54.880001 4278255360
50.07 38.330002 55.059998 4278255360
50.040001 37.52 54.279999 4278255360
50.130001 37.970001 55.52 4278255360
50.150002 38 55.869999 4278255360
50.110001 37.080002 54.939999 4278255360
50.189999 37.799999 56.209999 4278255360
50.150002 36.82 55.23 4278255360
50.23 37.610001 56.579998 4278255360
50.240002 37.349998 56.549999 4278255360
50.27 37.439999 56.959999 4278255360
50.279999 37.25 57.02 4278255360
50.25 36.43 56.25 4278255360
50.299999 36.82 57.059998 4278255360
50.330002 36.799999 57.34 4278255360
50.32 36.259998 56.959999 4278255360
50.330002 36.119999 57.07 4278255360
50.360001 36.150002 57.399998 4278255360
50.369999 35.830002 57.299999 4278255360
50.419998 38.459999 54.649998 4278255360
50.439999 38.259998 54.709999 4278255360
50.48 38.18 55.209999 4278255360
50.52 38.400002 55.82 4278255360
50.549999 38.439999 56.18 4278255360
50.549999 38.150002 56.110001 4278255360
50.580002 38.220001 56.5 4278255360
50.59 37.93 56.439999 4278255360
50.599998 37.709999 56.439999 4278255360
50.639999 37.869999 56.959999 4278255360
50.66 37.799999 57.169998 4278255360
50.639999 37.240002 56.73 4278255360
50.639999 36.720001 56.369999 4278255360
50.66 36.740002 56.700001 4278255360
50.689999 36.77 57.049999 4278255360
50.709999 36.68 57.23 4278255360
50.73 36.580002 57.389999 4278255360
50.720001 36.139999 57.139999 4278255360
50.57 38.5 54.52 4278255360
50.580002 38.27 54.52 4278255360
50.59 38.080002 54.59 4278255360
50.599998 37.75 54.469997 4278255360
50.619999 37.720001 54.73 4278255360
50.689999 38.360001 55.91 4278255360
50.709999 38.360001 56.219997 4278255360
50.700001 37.880001 55.880001 4278255360
50.740002 38 56.349998 4278255360
50.740002 37.630001 56.169998 4278255360
50.709999 36.860001 55.469997 4278255360
50.75 37.099998 56.079998 4278255360
50.779999 37.18 56.48 4278255360
50.810001 37.209999 56.84 4278255360
50.779999 36.389999 56.059998 4278255360
50.84 36.860001 56.98 4278255360
50.84 36.57 56.919998 4278255360
50.860001 36.490002 57.119999 4278255360
50.689999 38.310001 54.639999 4278255360
50.700001 38.09 54.649998 4278255360
50.73 37.869999 54.969997 4278255360
50.75 37.77 55.149998 4278255360
50.799999 38.150002 55.98 4278255360
50.810001 37.880001 55.93 4278255360
50.799999 37.43 55.649998 4278255360
50.84 37.68 56.27 4278255360
50.860001 37.599998 56.459999 4278255360
50.860001 37.23 56.299999 4278255360
50.880001 37.189999 56.529999 4278255360
50.900002 37.119999 56.759998 4278255360
50.889999 36.470001 56.219997 4278255360
50.91 36.450001 56.489998 4278255360
50.68 38.41 54.639999 4278255360
50.689999 38.150002 54.599998 4278255360
50.709999 37.790001 54.739998 4278255360
50.720001 37.57 54.739998 4278255360
50.779999 38.119999 55.809998 4278255360
50.810001 38.150002 56.16 4278255360
50.799999 37.610001 55.75 4278255360
50.810001 37.48 55.880001 4278255360
50.84 37.560001 56.290001 4278255360
50.82 36.880001 55.700001 4278255360
50.869999 37.220001 56.459999 4278255360
50.900002 37.209999 56.759998 4278255360
50.880001 36.650002 56.329998 4278255360
50.889999 36.380001 56.299999 4278255360
50.720001 38.169998 54.619999 4278255360
50.75 37.880001 54.849998 4278255360
50.75 37.450001 54.579998 4278255360
50.830002 38.189999 55.899998 4278255360
50.84 38.02 55.98 4278255360
50.84 37.610001 55.759998 4278255360
50.830002 37.09 55.360001 4278255360
50.889999 37.66 56.419998 4278255360
50.869999 36.869999 55.68 4278255360
50.91 37.209999 56.439999 4278255360
50.93 37.110001 56.619999 4278255360
50.939999 36.84 56.57 4278255360
50.939999 36.439999 56.369999 4278255360
50.740002 38.09 54.649998 4278255360
50.779999 37.880001 55.009998 4278255360
50.799999 37.75 55.139999 4278255360
50.849998 38.07 55.889999 4278255360
50.860001 37.939999 56.02 4278255360
50.84 37.240002 55.389999 4278255360
50.900002 37.700001 56.32 4278255360
50.919998 37.619999 56.5 4278255360
50.919998 37.279999 56.369999 4278255360
50.939999 37.119999 56.469997 4278255360
50.959999 37.040001 56.669998 4278255360
50.950001 36.549999 56.329998 4278255360
51.240002 37.380001 55.360001 4278255360
51.259998 37.240002 55.489998 4278255360
51.290001 37.360001 55.950001 4278255360
51.330002 37.52 56.459999 4278255360
51.330002 37.25 56.419998 4278255360
51.349998 37.18 56.630001 4278255360
51.599998 37.169998 55.579998 4278255360
51.639999 37.419998 56.209999 4278255360
51.66 37.330002 56.399998 4278255360
51.66 36.919998 56.16 4278255360
51.669998 36.759998 56.259998 4278255360
51.689999 36.700001 56.489998 4278255360
51.709999 36.630001 56.700001 4278255360
51.700001 37.450001 56.32 4278255360
51.700001 37.080002 56.130001 4278255360
51.709999 36.860001 56.149998 4278255360
51.73 36.75 56.32 4278255360
51.77 36.619999 56.759998 4278255360
51.419998 37.389999 55.369999 4278255360
51.43 37.209999 55.439999 4278255360
51.459999 37.259998 55.82 4278255360
51.490002 37.369999 56.259998 4278255360
51.52 37.34 56.529999 4278255360
51.5 36.759998 56.07 4278255360
51.529999 36.720001 56.329998 4278255360
51.299999 37.43 55.369999 4278255360
51.330002 37.150002 55.630001 4278255360
51.380001 37.490002 56.380001 4278255360
51.389999 37.299999 56.439999 4278255360
51.41 37.200001 56.619999 4278255360
51.720001 37.279999 56.290001 4278255360
51.720001 36.93 56.119999 4278255360
51.73 36.700001 56.119999 4278255360
51.759998 36.689999 56.43 4278255360
51.779999 36.610001 56.619999 4278255360
51.759998 36.68 56.119999 4278255360
51.759998 36.84 56.139999 4278255360
51.759998 36.98 56.110001 4278255360
51.759998 37.119999 55.939999 4278255360
51.759998 37.259998 55.84 4278255360
51.5 36.599998 56.709999 4278255360
51.509998 36.720001 56.459999 4278255360
51.52 36.82 56.049999 4278255360
51.529999 36.91 55.68 4278255360
51.5 37.16 56.419998 4278255360
51.490002 37.330002 56.509998 4278255360
51.5 37.459999 56.360001 4278255360
51.549999 36.599998 56.719997 4278255360
51.549999 36.73 56.540001 4278255360
51.560001 36.830002 56.169998 4278255360
51.57 36.950001 55.91 4278255360
51.560001 37.130001 56.130001 4278255360
51.540001 37.32 56.469997 4278255360
51.540001 37.459999 56.369999 4278255360
51.360001 36.68 56.18 4278255360
51.369999 36.93 55.779999 4278255360
51.34 37.169998 56.469997 4278255360
51.34 37.310001 56.349998 4278255360
51.330002 37.48 56.509998 4278255360
51.040001 36.259998 56.130001 4278255360
51.040001 36.41 56.110001 4278255360
51.029999 36.59 56.32 4278255360
51.040001 36.709999 56.040001 4278255360
51.009998 36.950001 56.689999 4278255360
51.02 37.049999 56.329998 4278255360
51.029999 37.139999 55.899998 4278255360
51.049999 37.200001 55.130001 4278255360
51.040001 37.389999 55.439999 4278255360
51 37.650002 56.299999 4278255360
50.66 36.099998 57.110001 4278255360
50.68 36.119999 56.279999 4278255360
50.650002 36.380001 57 4278255360
50.639999 36.59 57.380001 4278255360
50.639999 36.709999 57.149998 4278255360
50.639999 36.849998 57.09 4278255360
50.689999 36.759998 55.360001 4278255360
50.639999 37.110001 56.790001 4278255360
50.639999 37.25 56.75 4278255360
50.68 37.34 55.040001 4278255360
50.66 37.59 55.809998 4278255360
50.630001 37.84 56.669998 4278255360
50.639999 37.93 56.139999 4278255360
50.630001 38.110001 56.389999 4278255360
50.630001 38.25 56.309998 4278255360
50.619999 38.389999 56.23 4278255360
50.740002 36.16 56.149998 4278255360
50.700001 36.459999 57.16 4278255360
50.700001 36.59 57.02 4278255360
50.700001 36.73 56.959999 4278255360
50.700001 36.880001 56.989998 4278255360
50.740002 36.84 55.540001 4278255360
50.689999 37.169998 56.860001 4278255360
50.689999 37.310001 56.779999 4278255360
50.720001 37.34 55.849998 4278255360
50.700001 37.560001 56.380001 4278255360
50.709999 37.669998 56.059998 4278255360
50.68 37.900002 56.739998 4278255360
50.700001 37.959999 55.98 4278255360
50.700001 38.09 55.739998 4278255360
50.689999 38.290001 56.18 4278255360
50.810001 36.200001 56.139999 4278255360
50.810001 36.34 56.09 4278255360
50.790001 36.549999 56.529999 4278255360
50.779999 36.73 56.700001 4278255360
50.77 36.900002 56.869999 4278255360
50.799999 36.919998 55.84 4278255360
50.77 37.209999 56.869999 4278255360
50.759998 37.349998 56.799999 4278255360
50.790001 37.369999 55.82 4278255360
50.77 37.610001 56.489998 4278255360
50.77 37.73 56.219997 4278255360
50.779999 37.990002 55.91 4278255360
50.790001 38.09 55.48 4278255360
50.77 38.310001 55.989998 4278255360
50.540001 36.130001 57.099998 4278255360
50.560001 36.189999 56.419998 4278255360
50.529999 36.459999 57.219997 4278255360
50.52 36.619999 57.34 4278255360
50.52 36.73 57.079998 4278255360
50.52 36.889999 57.139999 4278255360
50.540001 36.93 56.349998 4278255360
50.52 37.130001 56.73 4278255360
50.52 37.279999 56.669998 4278255360
50.52 37.41 56.529999 4278255360
50.549999 37.459999 55.689999 4278255360
50.5 37.779999 57.079998 4278255360
50.5 37.919998 57 4278255360
50.509998 37.990002 56.34 4278255360
50.5 38.169998 56.619999 4278255360
50.509998 38.290001 56.32 4278255360
50.5 38.439999 56.25 4278255360
50.139999 35.849998 57.139999 4278255360
50.130001 35.990002 57.09 4278255360
50.130001 36.139999 57.110001 4278255360
50.150002 36.18 56.360001 4278255360
50.150002 36.299999 56.189999 4278255360
50.119999 36.59 57.110001 4278255360
50.110001 36.740002 57.110001 4278255360
50.119999 36.98 56.66 4278255360
50.110001 37.150002 56.849998 4278255360
50.099998 37.34 57.09 4278255360
50.099998 37.470001 56.959999 4278255360
50.099998 37.59 56.73 4278255360
50.09 37.77 56.98 4278255360
50.110001 37.830002 56.209999 4278255360
50.130001 37.860001 55.18 4278255360
50.110001 38.09 55.889999 4278255360
50.119999 38.16 55.209999 4278255360
50.130001 38.27 54.860001 4278255360
50.119999 38.439999 54.950001 4278255360
50.119999 38.580002 54.779999 4278255360
49.889999 36.209999 57.07 4278255360
49.889999 36.349998 56.959999 4278255360
49.91 36.41 56.299999 4278255360
49.889999 36.599998 56.619999 4278255360
49.889999 36.759998 56.700001 4278255360
49.919998 36.720001 55.25 4278255360
49.880001 37.07 56.759998 4278255360
49.869999 37.220001 56.759998 4278255360
49.880001 37.299999 56.18 4278255360
49.869999 37.52 56.669998 4278255360
49.91 37.439999 54.860001 4278255360
49.849998 37.84 56.91 4278255360
49.869999 38.049999 56.099998 4278255360
49.860001 38.220001 56.23 4278255360
49.869999 38.290001 55.529999 4278255360
49.880001 38.389999 55.040001 4278255360
49.990002 35.860001 57.079998 4278255360
49.98 36.310001 57.09 4278255360
49.990002 36.389999 56.59 4278255360
49.98 36.580002 56.860001 4278255360
49.959999 36.779999 57.18 4278255360
50.02 36.639999 55.040001 4278255360
50.02 36.799999 55.07 4278255360
49.959999 37.200001 56.959999 4278255360
49.959999 37.310001 56.700001 4278255360
49.950001 37.470001 56.75 4278255360
49.950001 37.599998 56.619999 4278255360
49.939999 37.799999 57.009998 4278255360
50.02 37.59 54 4278255360
49.959999 37.970001 55.880001 4278255360
49.950001 38.16 56.169998 4278255360
49.970001 38.23 55.579998 4278255360
49.970001 38.34 55.099998 4278255360
49.970001 38.470001 54.969997 4278255360
49.900002 36.240002 57.099998 4278255360
49.91 36.360001 56.919998 4278255360
49.919998 36.41 56.219997 4278255360
49.900002 36.66 56.860001 4278255360
49.900002 36.759998 56.52 4278255360
49.93 36.790001 55.630001 4278255360
49.889999 37.099998 56.809998 4278255360
49.889999 37.25 56.739998 4278255360
49.889999 37.34 56.32 4278255360
49.880001 37.529999 56.630001 4278255360
49.93 37.450001 54.779999 4278255360
49.860001 37.860001 56.899998 4278255360
49.900002 37.860001 55.669998 4278255360
49.880001 38.080002 56.200001 4278255360
49.880001 38.220001 56.09 4278255360
49.900002 38.27 55.189999 4278255360
49.900002 38.41 55.07 4278255360
49.619999 36.259998 56.469997 4278255360
49.619999 36.389999 56.290001 4278255360
49.639999 36.419998 55.48 4278255360
49.610001 36.709999 56.469997 4278255360
49.610001 36.849998 56.380001 4278255360
49.619999 36.919998 55.779999 4278255360
49.599998 37.279999 56.119999 4278255360
49.639999 37.380001 54.619999 4278255360
49.619999 37.880001 54.849998 4278255360
49.610001 38.049999 54.969997 4278255360
49.16 36.220001 55.200001 4278255360
49.150002 36.43 55.57 4278255360
49.130001 36.68 56.27 4278255360
49.139999 36.740002 55.619999 4278255360
49.150002 36.830002 55.149998 4278255360
49.139999 36.970001 55.029999 4278255360
49.139999 37.139999 55.130001 4278255360
49.139999 37.25 54.779999 4278255360
48.98 36.169998 55.189999 4278255360
48.970001 36.349998 55.389999 4278255360
48.970001 36.5 55.360001 4278255360
48.970001 36.619999 55.119999 4278255360
48.959999 36.77 55.07 4278255360
48.959999 36.91 54.93 4278255360
48.950001 37.099998 55.239998 4278255360
49.029999 36.150002 55.189999 4278255360
49.02 36.32 55.279999 4278255360
49.009998 36.490002 55.380001 4278255360
49.02 36.59 54.969997 4278255360
49.009998 36.759998 55.130001 4278255360
49.009998 36.880001 54.880001 4278255360
49 37.09 55.27 4278255360
49.09 36.150002 55.200001 4278255360
49.09 36.299999 55.239998 4278255360
49.080002 36.48 55.380001 4278255360
49.080002 36.610001 55.200001 4278255360
49.080002 36.75 55.079998 4278255360
49.080002 36.880001 54.93 4278255360
49.060001 37.080002 55.290001 4278255360
49.07 37.18 54.869999 4278255360
48.849998 36.330002 55.399998 4278255360
48.849998 36.459999 55.23 4278255360
48.84 36.619999 55.239998 4278255360
48.84 36.759998 55.149998 4278255360
46.73 37.540001 55.27 4278255360
46.73 37.68 55.119999 4278255360
46.720001 37.84 55.279999 4278255360
46.709999 38.139999 55.189999 4278255360
46.759998 37.639999 55.27 4278255360
46.77 37.759998 54.959999 4278255360
46.580002 37.400002 55.219997 4278255360
46.57 37.57 55.360001 4278255360
46.57 37.720001 55.329998 4278255360
46.549999 37.939999 55.880001 4278255360
46.549999 38.099998 55.919998 4278255360
46.560001 38.169998 55.139999 4278255360
46.130001 37.380001 56.049999 4278255360
46.110001 37.599998 56.540001 4278255360
46.130001 37.66 55.849998 4278255360
46.130001 37.779999 55.66 4278255360
46.110001 38.02 56.380001 4278255360
46.110001 37.450001 56.349998 4278255360
46.099998 37.610001 56.459999 4278255360
46.110001 37.720001 56.110001 4278255360
46.110001 37.849998 55.91 4278255360
46.09 38.07 56.419998 4278255360
46.099998 38.18 56.130001 4278255360
46.259998 37.41 56.18 4278255360
46.25 37.599998 56.459999 4278255360
46.27 37.68 55.84 4278255360
46.259998 37.830002 55.91 4278255360
46.25 38 56.059998 4278255360
46.25 38.16 56.059998 4278255360
46.240002 38.330002 56.259998 4278255360
46.09 37.419998 56.299999 4278255360
46.09 37.59 56.459999 4278255360
46.09 37.700001 56.149998 4278255360
46.099998 37.810001 55.790001 4278255360
46.080002 38.040001 56.439999 4278255360
46.16 38.299999 56.209999 4278255360
46.169998 38.110001 56.189999 4278255360
46.16 38.02 55.989998 4278255360
46.200001 37.619999 56.450001 4278255360
46.18 37.66 55.959999 4278255360
46.200001 37.41 56.099998 4278255360
46.150002 37.580002 55.34 4278255360
46.119999 37.650002 54.799999 4278255360
46.099998 37.639999 54.41 4278255360
46.52 38.060001 55.880001 4278255360
46.529999 37.860001 55.91 4278255360
46.5 37.919998 55.369999 4278255360
46.48 37.959999 54.889999 4278255360
46.52 37.580002 55.32 4278255360
46.52 37.470001 55.139999 4278255360
46.830002 37.669998 55.32 4278255360
46.84 37.52 55.239998 4278255360
49.150002 36.73 56.579998 4278255360
49.130001 36.799999 56.049999 4278255360
49.099998 36.93 55.349998 4278255360
49.110001 36.700001 55.450001 4278255360
49.110001 36.59 55.290001 4278255360
49.110001 36.439999 55.189999 4278255360
49.119999 36.259998 55.169998 4278255360
49.119999 36.110001 55.119999 4278255360
49.34 37.189999 56.779999 4278255360
49.34 37.040001 56.719997 4278255360
49.330002 37.060001 56.279999 4278255360
49.34 36.799999 56.41 4278255360
49.330002 36.75 56.119999 4278255360
49.349998 36.450001 56.380001 4278255360
49.330002 36.529999 55.82 4278255360
49.290001 36.75 54.919998 4278255360
49.330002 36.240002 55.630001 4278255360
49.330002 36.169998 55.389999 4278255360
49.27 37.040001 56.700001 4278255360
49.27 36.990002 56.419998 4278255360
49.279999 36.759998 56.509998 4278255360
49.259998 36.75 56.139999 4278255360
49.279999 36.450001 56.41 4278255360
49.259998 36.529999 55.809998 4278255360
49.220001 36.75 54.93 4278255360
49.25 36.32 55.439999 4278255360
49.25 36.209999 55.290001 4278255360
49.450001 37.18 56.610001 4278255360
49.450001 37.009998 56.59 4278255360
49.439999 36.950001 56.309998 4278255360
49.439999 36.860001 56.099998 4278255360
49.439999 36.740002 55.969997 4278255360
49.450001 36.459999 56.18 4278255360
49.41 36.700001 55.25 4278255360
49.43 36.41 55.48 4278255360
49.439999 36.209999 55.52 4278255360
49.43 36.130001 55.279999 4278255360
50.009998 37.790001 57.059998 4278255360
50 37.75 56.739998 4278255360
50.02 37.43 57.009998 4278255360
50.02 37.330002 56.829998 4278255360
50.02 37.209999 56.719997 4278255360
50.040001 36.84 57.119999 4278255360
50.029999 36.84 56.709999 4278255360
50.049999 36.540001 56.98 4278255360
50.049999 36.32 57.040001 4278255360
50.040001 36.34 56.599998 4278255360
50.029999 36.279999 56.32 4278255360
50.07 35.810001 56.969997 4278255360
49.990002 36.509998 55.029999 4278255360
50.669998 38.290001 56.450001 4278255360
50.669998 38.169998 56.32 4278255360
50.669998 38.029999 56.209999 4278255360
50.669998 37.900002 56.110001 4278255360
50.689999 37.610001 56.32 4278255360
50.709999 37.169998 56.84 4278255360
50.720001 36.869999 57.099998 4278255360
50.73 36.68 57.110001 4278255360
50.73 36.580002 56.950001 4278255360
50.68 37.049999 55.52 4278255360
50.700001 36.720001 55.849998 4278255360
50.709999 36.470001 55.989998 4278255360
50.720001 36.200001 56.16 4278255360
50.990002 37.580002 56.529999 4278255360
51.009998 36.959999 56.68 4278255360
50.990002 36.990002 56.200001 4278255360
50.990002 36.959999 55.880001 4278255360
51.009998 36.599998 56.259998 4278255360
51.009998 36.48 56.130001 4278255360
51.009998 36.310001 56.099998 4278255360
50.970001 36.759998 54.709999 4278255360
50.709999 38.240002 56.389999 4278255360
50.709999 38.169998 56.16 4278255360
50.700001 38.09 55.93 4278255360
50.73 37.669998 56.399998 4278255360
50.75 37.299999 56.790001 4278255360
50.75 37.16 56.689999 4278255360
50.759998 36.889999 56.880001 4278255360
50.759998 36.73 56.84 4278255360
50.759998 36.650002 56.619999 4278255360
50.73 36.75 55.579998 4278255360
50.75 36.360001 56.02 4278255360
50.75 36.200001 55.98 4278255360
50.419998 38.43 56.290001 4278255360
50.459999 37.860001 57.079998 4278255360
50.450001 37.779999 56.849998 4278255360
50.459999 37.619999 56.790001 4278255360
50.450001 37.529999 56.610001 4278255360
50.459999 37.299999 56.709999 4278255360
50.490002 36.869999 57.219997 4278255360
50.5 36.610001 57.399998 4278255360
50.5 36.540001 57.139999 4278255360
50.5 36.41 57.029999 4278255360
50.5 36.25 56.959999 4278255360
50.419998 36.93 55.099998 4278255360
50.470001 36.34 55.989998 4278255360
50.470001 36.18 55.939999 4278255360
50.639999 38.290001 56.469997 4278255360
50.650002 38.150002 56.399998 4278255360
50.650002 38.009998 56.279999 4278255360
50.650002 37.91 56.099998 4278255360
50.650002 37.720001 56.110001 4278255360
50.689999 37.200001 56.809998 4278255360
50.700001 36.880001 57.079998 4278255360
50.709999 36.650002 57.200001 4278255360
50.709999 36.560001 57.009998 4278255360
50.650002 37.049999 55.549999 4278255360
50.669998 36.720001 55.849998 4278255360
50.68 36.529999 55.869999 4278255360
50.700001 36.200001 56.18 4278255360
50.689999 36.139999 55.899998 4278255360
51.040001 37.400002 56.209999 4278255360
51.060001 37.029999 56.610001 4278255360
51.029999 37.200001 55.829998 4278255360
51.029999 37.060001 55.739998 4278255360
51.040001 36.889999 55.719997 4278255360
51.060001 36.549999 56.040001 4278255360
51.060001 36.43 55.919998 4278255360
51.009998 36.790001 54.719997 4278255360
51.080002 37.139999 56.529999 4278255360
51.07 37.080002 56.25 4278255360
51.040001 37.349998 55.290001 4278255360
51.049999 37.049999 55.540001 4278255360
51.07 36.709999 55.869999 4278255360
51.07 36.560001 55.799999 4278255360
51.080002 36.310001 55.919998 4278255360
50.470001 38.490002 56.25 4278255360
50.52 37.869999 57.139999 4278255360
50.509998 37.869999 56.759998 4278255360
50.48 37.970001 56.149998 4278255360
50.490002 37.73 56.27 4278255360
50.52 37.330002 56.719997 4278255360
50.540001 36.959999 57.119999 4278255360
50.560001 36.630001 57.419998 4278255360
50.560001 36.549999 57.209999 4278255360
50.549999 36.470001 56.98 4278255360
50.560001 36.279999 57 4278255360
50.560001 36.150002 56.869999 4278255360
50.119999 37.830002 57 4278255360
50.119999 37.73 56.829998 4278255360
50.139999 37.380001 57.18 4278255360
50.119999 37.400002 56.739998 4278255360
50.139999 37.099998 56.989998 4278255360
50.150002 36.84 57.149998 4278255360
50.139999 36.779999 56.869999 4278255360
50.169998 36.27 57.189999 4278255360
50.169998 36.16 57.049999 4278255360
50.189999 35.869999 57.259998 4278255360
50.18 35.82 56.989998 4278255360
50.119999 36.169998 55.799999 4278255360
50.18 37.990002 56.630001 4278255360
50.200001 37.669998 56.919998 4278255360
50.220001 37.380001 57.130001 4278255360
50.209999 37.360001 56.77 4278255360
50.240002 36.91 57.32 4278255360
50.240002 36.799999 57.169998 4278255360
50.240002 36.700001 57.009998 4278255360
50.27 36.18 57.349998 4278255360
50.240002 36.25 56.779999 4278255360
50.279999 35.849998 57.25 4278255360
50.23 36.09 56.309998 4278255360
50.200001 36.18 55.739998 4278255360
50.16 36.400002 54.84 4278255360
50.59 38.400002 56.369999 4278255360
50.619999 38.029999 56.739998 4278255360
50.599998 38.060001 56.309998 4278255360
50.59 37.970001 56.110001 4278255360
50.59 37.91 55.849998 4278255360
50.639999 37.279999 56.779999 4278255360
50.66 37.02 56.950001 4278255360
50.68 36.700001 57.23 4278255360
50.669998 36.619999 57 4278255360
50.669998 36.490002 56.899998 4278255360
50.57 37.23 54.899998 4278255360
50.610001 36.73 55.559998 4278255360
50.66 36.240002 56.25 4278255360
50.77 38.349998 56.34 4278255360
50.759998 38.259998 56.130001 4278255360
50.75 38.209999 55.860001 4278255360
50.799999 37.700001 56.540001 4278255360
50.810001 37.459999 56.639999 4278255360
50.82 37.220001 56.759998 4278255360
50.82 37.080002 56.66 4278255360
50.82 36.919998 56.599998 4278255360
50.799999 36.939999 56.149998 4278255360
50.77 37.099998 55.419998 4278255360
50.82 36.59 56.139999 4278255360
50.740002 37.09 54.639999 4278255360
50.830002 36.240002 56.099998 4278255360
50.759998 36.639999 54.809998 4278255360
50.41 38.48 56.279999 4278255360
50.470001 37.880001 57.130001 4278255360
50.459999 37.810001 56.869999 4278255360
50.450001 37.740002 56.639999 4278255360
50.439999 37.66 56.439999 4278255360
50.459999 37.389999 56.599998 4278255360
50.5 36.900002 57.259998 4278255360
50.509998 36.669998 57.349998 4278255360
50.5 36.599998 57.09 4278255360
50.5 36.450001 57.009998 4278255360
50.470001 36.619999 56.279999 4278255360
50.509998 36.150002 56.899998 4278255360
50.439999 36.580002 55.549999 4278255360
50.470001 36.200001 55.989998 4278255360
50.049999 37.799999 57.099998 4278255360
50.040001 37.759998 56.799999 4278255360
50.060001 37.5 56.969997 4278255360
50.060001 37.299999 57 4278255360
50.049999 37.240002 56.73 4278255360
50.080002 36.880001 57.09 4278255360
50.07 36.84 56.779999 4278255360
50.09 36.540001 57.040001 4278255360
50.099998 36.360001 57.029999 4278255360
50.07 36.419998 56.509998 4278255360
50.07 36.23 56.509998 4278255360
50.110001 35.810001 57.02 4278255360
49.990002 36.529999 55.040001 4278255360
50.119999 37.830002 57.130001 4278255360
50.099998 37.830002 56.759998 4278255360
50.119999 37.52 57.009998 4278255360
50.130001 37.32 57.02 4278255360
50.130001 37.200001 56.889999 4278255360
50.150002 36.919998 57.110001 4278255360
50.130001 36.950001 56.639999 4278255360
50.16 36.57 57.059998 4278255360
50.189999 36.25 57.369999 4278255360
50.060001 36.98 55.389999 4278255360
50.16 36.18 56.709999 4278255360
50.189999 35.810001 57.110001 4278255360
50.110001 36.240002 55.790001 4278255360
50.560001 38.380001 56.41 4278255360
50.599998 37.950001 56.91 4278255360
50.57 38.029999 56.34 4278255360
50.57 37.950001 56.139999 4278255360
50.57 37.82 56.009998 4278255360
50.619999 37.27 56.77 4278255360
50.639999 36.990002 56.98 4278255360
50.669998 36.68 57.25 4278255360
50.66 36.610001 57 4278255360
50.66 36.459999 56.93 4278255360
50.529999 37.310001 54.68 4278255360
50.580002 36.799999 55.389999 4278255360
50.639999 36.220001 56.25 4278255360
50.560001 36.68 54.860001 4278255360
50.880001 38.23 56.049999 4278255360
50.880001 38.080002 55.969997 4278255360
50.919998 37.630001 56.540001 4278255360
50.849998 38.049999 55.279999 4278255360
50.860001 37.880001 55.23 4278255360
50.950001 37.029999 56.649998 4278255360
50.950001 36.860001 56.610001 4278255360
50.939999 36.799999 56.34 4278255360
50.950001 36.599998 56.369999 4278255360
50.950001 36.5 56.18 4278255360
50.93 36.52 55.75 4278255360
50.939999 36.259998 55.899998 4278255360
50.880001 36.639999 54.68 4278255360
50.52 38.52 56.279999 4278255360
50.57 38.029999 56.899998 4278255360
50.549999 38.029999 56.5 4278255360
50.549999 37.900002 56.389999 4278255360
50.540001 37.77 56.279999 4278255360
50.549999 37.599998 56.239998 4278255360
50.599998 37.119999 56.880001 4278255360
50.619999 36.779999 57.189999 4278255360
50.630001 36.560001 57.259998 4278255360
50.630001 36.470001 57.059998 4278255360
50.490002 37.32 54.84 4278255360
50.560001 36.549999 55.700001 4278255360
50.59 36.209999 56.07 4278255360
50.16 37.970001 56.59 4278255360
50.18 37.630001 56.880001 4278255360
50.200001 37.360001 57.07 4278255360
50.189999 37.330002 56.75 4278255360
50.23 36.889999 57.27 4278255360
50.220001 36.830002 57.009998 4278255360
50.220001 36.66 56.989998 4278255360
50.259998 36.25 57.469997 4278255360
50.25 36.18 57.23 4278255360
50.209999 36.279999 56.619999 4278255360
50.259998 35.830002 57.189999 4278255360
50.169998 36.23 55.919998 4278255360
50.119999 36.43 55.059998 4278255360
50.110001 36.369999 54.790001 4278255360
50.119999 37.889999 57.09 4278255360
50.09 37.98 56.529999 4278255360
50.130001 37.59 56.959999 4278255360
50.139999 37.349998 57.049999 4278255360
50.130001 37.32 56.739998 4278255360
50.16 36.950001 57.139999 4278255360
50.150002 36.889999 56.860001 4278255360
50.169998 36.599998 57.079998 4278255360
50.209999 36.240002 57.459999 4278255360
50.169998 36.34 56.880001 4278255360
50.16 36.25 56.66 4278255360
50.209999 35.82 57.209999 4278255360
50.060001 36.59 55.110001 4278255360
50.41 38.490002 56.349998 4278255360
50.470001 37.93 57.119999 4278255360
50.470001 37.84 56.919998 4278255360
50.450001 37.790001 56.649998 4278255360
50.450001 37.689999 56.469997 4278255360
50.439999 37.59 56.27 4278255360
50.52 36.970001 57.189999 4278255360
50.529999 36.709999 57.34 4278255360
50.540001 36.57 57.259998 4278255360
50.529999 36.470001 57.09 4278255360
50.419998 37.049999 55.450001 4278255360
50.540001 36.150002 57.009998 4278255360
50.439999 36.630001 55.540001 4278255360
50.48 36.25 55.959999 4278255360
50.689999 38.279999 56.399998 4278255360
50.68 38.209999 56.189999 4278255360
50.68 38.099998 56.029999 4278255360
50.709999 37.720001 56.43 4278255360
50.740002 37.360001 56.790001 4278255360
50.75 37.18 56.790001 4278255360
50.759998 36.990002 56.790001 4278255360
50.759998 36.830002 56.73 4278255360
50.75 36.779999 56.450001 4278255360
50.700001 37 55.579998 4278255360
50.700001 36.810001 55.59 4278255360
50.73 36.490002 55.889999 4278255360
50.75 36.200001 56.099998 4278255360
50.799999 38.259998 56.09 4278255360
50.790001 38.18 55.860001 4278255360
50.84 37.68 56.52 4278255360
50.849998 37.509998 56.48 4278255360
50.779999 37.799999 55.469997 4278255360
50.860001 37.110001 56.549999 4278255360
50.880001 36.869999 56.66 4278255360
50.849998 36.900002 56.209999 4278255360
50.860001 36.700001 56.239998 4278255360
50.849998 36.650002 55.939999 4278255360
50.810001 36.73 55.349998 4278255360
50.869999 36.259998 55.989998 4278255360
50.790001 36.630001 54.77 4278255360
50.810001 38.23 56.09 4278255360
50.810001 38.110001 55.93 4278255360
50.860001 37.639999 56.529999 4278255360
50.779999 38.009998 55.369999 4278255360
50.779999 37.869999 55.239998 4278255360
50.880001 37.029999 56.639999 4278255360
50.889999 36.860001 56.59 4278255360
50.880001 36.779999 56.369999 4278255360
50.889999 36.580002 56.419998 4278255360
50.869999 36.57 56.029999 4278255360
50.830002 36.68 55.399998 4278255360
50.869999 36.27 55.869999 4278255360
50.790001 36.619999 54.68 4278255360
51 37.669998 56.41 4278255360
50.919998 37.860001 55.209999 4278255360
51.029999 37.02 56.599998 4278255360
51 37.049999 56.130001 4278255360
50.970001 37.110001 55.59 4278255360
51.029999 36.599998 56.290001 4278255360
51.029999 36.5 56.119999 4278255360
51.029999 36.34 56.049999 4278255360
50.939999 36.77 54.719997 4278255360
51.279999 37.540001 56.619999 4278255360
51.279999 37.400002 56.52 4278255360
51.290001 37.189999 56.579998 4278255360
51.27 37.200001 56.16 4278255360
51.240002 37.299999 55.549999 4278255360
51.259998 36.98 55.809998 4278255360
51.27 36.700001 55.630001 4278255360
51.720001 37.200001 55.939999 4278255360
51.740002 36.919998 56.149998 4278255360
51.740002 36.759998 56.099998 4278255360
51.75 36.560001 56.110001 4278255360
51.240002 36.98 55.630001 4278255360
51.220001 37.09 55.849998 4278255360
51.209999 37.119999 56.119999 4278255360
51.189999 37.209999 56.349998 4278255360
51.18 37.240002 56.619999 4278255360
51.169998 37.59 56.59 4278255360
50.959999 36.419998 55.899998 4278255360
50.939999 36.48 56.139999 4278255360
50.93 36.709999 56.23 4278255360
50.919998 36.869999 56.380001 4278255360
50.91 36.91 56.639999 4278255360
51.189999 37 55.66 4278255360
51.18 37.110001 55.849998 4278255360
51.16 37.16 56.099998 4278255360
51.150002 37.18 56.389999 4278255360
51.139999 37.279999 56.59 4278255360
51.34 36.759998 55.649998 4278255360
51.330002 36.939999 55.779999 4278255360
51.310001 36.84 56.169998 4278255360
51.290001 37.16 56.48 4278255360
51.27 37.400002 56.57 4278255360
51.040001 36.490002 55.809998 4278255360
51.029999 36.790001 55.84 4278255360
51.009998 37.099998 55.860001 4278255360
50.98 37.02 56.529999 4278255360
50.23 36.400002 54.66 4278255360
50.220001 36.73 54.649998 4278255360
50.209999 37.360001 54.360001 4278255360
50.200001 36.169998 55.779999 4278255360
50.18 36.25 56 4278255360
50.16 36.080002 56.77 4278255360
50.139999 35.93 57.209999 4278255360
50.130001 36.59 56.899998 4278255360
50.119999 36.790001 57.009998 4278255360
50.099998 37.150002 56.98 4278255360
50.09 37.330002 57.119999 4278255360
50.07 37.77 57.02 4278255360
49.950001 37.240002 53.59 4278255360
49.939999 37.18 53.969997 4278255360
49.93 36.68 54.73 4278255360
49.919998 37.130001 54.610001 4278255360
49.91 36.900002 55.130001 4278255360
49.889999 37.41 54.959999 4278255360
49.889999 36.419998 56.18 4278255360
49.880001 36.209999 56.689999 4278255360
49.860001 36.450001 56.77 4278255360
49.849998 36.66 56.869999 4278255360
49.84 37 56.849998 4278255360
49.82 37.639999 56.57 4278255360
49.810001 37.869999 56.66 4278255360
50.689999 36.790001 54.489998 4278255360
50.68 36.98 54.619999 4278255360
50.669998 36.639999 55.239998 4278255360
50.650002 36.68 55.5 4278255360
50.639999 36.290001 56.169998 4278255360
50.630001 37.389999 55.459999 4278255360
50.610001 37.57 55.899998 4278255360
50.59 36.549999 57.119999 4278255360
50.580002 36.720001 57.279999 4278255360
50.57 38.130001 56.299999 4278255360
50.560001 38.099998 56.630001 4278255360
50.540001 37.799999 57.200001 4278255360
51.369999 36.630001 55.73 4278255360
51.349998 36.84 55.84 4278255360
51.34 36.77 56.200001 4278255360
51.330002 37.27 56.040001 4278255360
51.310001 37.150002 56.450001 4278255360
51.299999 37.400002 56.529999 4278255360
50.98 36.439999 55.91 4278255360
50.959999 36.580002 56.09 4278255360
50.950001 36.700001 56.27 4278255360
50.939999 37.029999 56.259998 4278255360
50.919998 36.950001 56.639999 4278255360
50.099998 36.630001 54.27 4278255360
50.09 36.650002 54.559998 4278255360
50.07 36.889999 54.639999 4278255360
50.060001 36.830002 55.009998 4278255360
50.040001 36.32 55.790001 4278255360
50.029999 36.450001 55.98 4278255360
50 36.27 56.73 4278255360
49.98 36.27 57.029999 4278255360
49.970001 36.75 56.889999 4278255360
49.950001 36.93 57.029999 4278255360
49.939999 37.73 56.610001 4278255360
49.93 37.650002 56.989998 4278255360
49.91 37.810001 57.130001 4278255360
49.880001 37.09 54.16 4278255360
49.860001 36.68 54.84 4278255360
49.849998 37.02 54.84 4278255360
49.84 36.84 55.309998 4278255360
49.82 37.52 54.989998 4278255360
49.779999 36.52 56.809998 4278255360
49.77 37.02 56.649998 4278255360
49.75 37.119999 56.849998 4278255360
49.740002 37.990002 56.380001 4278255360
49.73 37.869999 56.790001 4278255360
50.669998 36.84 54.630001 4278255360
50.650002 36.689999 55.07 4278255360
50.650002 37.360001 54.77 4278255360
50.610001 36.200001 56.139999 4278255360
50.610001 37.279999 55.439999 4278255360
50.57 36.52 56.73 4278255360
50.560001 36.560001 57 4278255360
50.540001 36.639999 57.23 4278255360
50.540001 37.970001 56.329998 4278255360
50.529999 38.139999 56.469997 4278255360
50.509998 37.84 57.040001 4278255360
51.18 36.990002 55.439999 4278255360
51.16 37.049999 55.689999 4278255360
51.139999 37.16 55.880001 4278255360
51.119999 37.119999 56.209999 4278255360
51.110001 37.209999 56.43 4278255360
51.09 37.240002 56.700001 4278255360
50.810001 36.77 54.649998 4278255360
50.790001 36.66 55.049999 4278255360
50.77 36.77 55.259998 4278255360
50.740002 36.25 56.049999 4278255360
50.740002 37.209999 55.469997 4278255360
50.709999 37.580002 55.73 4278255360
50.68 36.580002 56.950001 4278255360
50.66 36.75 57.079998 4278255360
50.66 37.549999 56.669998 4278255360
50.650002 38.189999 56.389999 4278255360
49.950001 37.290001 53.57 4278255360
49.93 37.110001 54.049999 4278255360
49.91 36.68 54.759998 4278255360
49.900002 37.189999 54.59 4278255360
49.880001 36.84 55.23 4278255360
49.869999 37.41 55.009998 4278255360
49.830002 36.66 56.290001 4278255360
49.82 36.490002 56.75 4278255360
49.799999 36.880001 56.689999 4278255360
49.790001 37.07 56.82 4278255360
49.779999 37.860001 56.41 4278255360
49.759998 37.84 56.739998 4278255360
49.830002 37.029999 54.110001 4278255360
49.810001 36.52 54.899998 4278255360
49.799999 36.970001 54.779999 4278255360
49.779999 36.490002 55.540001 4278255360
49.77 37.41 54.989998 4278255360
49.73 36.599998 56.34 4278255360
49.720001 36.689999 56.549999 4278255360
49.689999 37.169998 56.719997 4278255360
49.669998 37.32 56.880001 4278255360
49.66 38.080002 56.5 4278255360
50.669998 36.970001 54.579998 4278255360
50.650002 36.619999 55.209999 4278255360
50.639999 37.27 54.899998 4278255360
50.599998 36.209999 56.18 4278255360
50.610001 37.48 55.32 4278255360
50.59 37.380001 55.700001 4278255360
50.540001 36.630001 57 4278255360
50.52 36.610001 57.32 4278255360
50.529999 38 56.349998 4278255360
50.509998 38.07 56.59 4278255360
50.490002 37.82 57.110001 4278255360
51.07 36.66 55.540001 4278255360
51.040001 36.560001 55.93 4278255360
51.040001 37.18 55.66 4278255360
50.990002 36.959999 56.469997 4278255360
50.98 37.049999 56.669998 4278255360
50.419998 36.779999 54.450001 4278255360
50.389999 37.209999 54.68 4278255360
50.349998 36.16 55.959999 4278255360
50.34 36.549999 55.899998 4278255360
50.349998 38 54.860001 4278255360
50.290001 36.02 56.98 4278255360
50.279999 36.279999 57.040001 4278255360
50.259998 36.290001 57.329998 4278255360
50.25 36.93 57.059998 4278255360
50.23 37 57.290001 4278255360
50.220001 37.459999 57.169998 4278255360
49.380001 36.150002 55.299999 4278255360
49.360001 36.330002 55.43 4278255360
49.349998 37.110001 55 4278255360
49.330002 36.700001 55.68 4278255360
49.310001 36.41 56.25 4278255360
49.299999 36.77 56.23 4278255360
49.279999 36.799999 56.509998 4278255360
49.27 37.16 56.48 4278255360
49.25 37.18 56.75 4278255360
49.169998 36.23 55.049999 4278255360
49.16 36.400002 55.200001 4278255360
49.139999 36.82 55.119999 4278255360
49.130001 36.91 55.34 4278255360
49.110001 36.619999 55.889999 4278255360
49.080002 36.759998 56.369999 4278255360
49.66 36.610001 54.649998 4278255360
49.639999 36.490002 55.079998 4278255360
49.639999 37.02 54.880001 4278255360
49.610001 36.540001 55.619999 4278255360
49.59 36.419998 56.040001 4278255360
49.57 36.330002 56.41 4278255360
49.560001 36.84 56.25 4278255360
49.549999 36.869999 56.52 4278255360
49.73 36.779999 54.439999 4278255360
49.700001 36.470001 55.040001 4278255360
49.689999 36.939999 54.91 4278255360
49.669998 36.470001 55.639999 4278255360
49.650002 36.599998 55.82 4278255360
49.630001 36.330002 56.369999 4278255360
49.619999 36.669998 56.360001 4278255360
49.599998 36.849998 56.5 4278255360
49.57 37.200001 56.779999 4278255360
48.900002 36.290001 55.16 4278255360
48.889999 36.400002 55.360001 4278255360
46.73 37.630001 55.239998 4278255360
46.040001 37.709999 54.48 4278255360
46 37.330002 55.75 4278255360
46.07 37.799999 56.599998 4278255360
46.060001 37.810001 56.299999 4278255360
46.169998 38.02 56.309998 4278255360
46.110001 37.689999 56.290001 4278255360
46.07 37.599998 55.759998 4278255360
46.040001 37.490002 55.559998 4278255360
46.470001 37.880001 55.969997 4278255360
46.459999 38.049999 55.219997 4278255360
46.389999 37.599998 55.309998 4278255360
46.369999 37.529999 55.059998 4278255360
46.099998 37.779999 56.59 4278255360
46.080002 37.709999 56.349998 4278255360
46.040001 37.529999 56.200001 4278255360
46.02 37.5 55.91 4278255360
46.59 37.689999 55.34 4278255360
46.560001 37.529999 55.169998 4278255360
46.650002 37.669998 55.32 4278255360
