# .PCD v0.7 - Point Cloud Data file format
VERSION 0.7
FIELDS x y z rgb
SIZE 4 4 4 4
TYPE F F F U
COUNT 1 1 1 1
WIDTH 1274
HEIGHT 1
VIEWPOINT 0 0 0 1 0 0 0
POINTS 1274
DATA ascii
50.77 38.27 50.919998 4294967040
50.77 38.41 50.77 4294967040
50.869999 36.869999 50.98 4294967040
50.860001 37.209999 51.110001 4294967040
50.84 37.869999 51.23 4294967040
50.84 38.02 51.079998 4294967040
50.84 38.16 50.900002 4294967040
50.84 38.32 50.889999 4294967040
50.84 38.450001 50.560001 4294967040
50.950001 36.939999 51.23 4294967040
50.950001 37.23 51 4294967040
50.93 37.599998 51.279999 4294967040
50.93 37.759998 51.299999 4294967040
50.919998 37.919998 51.299999 4294967040
50.93 38.029999 50.860001 4294967040
50.93 38.200001 50.91 4294967040
50.919998 38.360001 50.900002 4294967040
50.73 36.16 50.630001 4294967040
50.700001 36.740002 51.279999 4294967040
50.700001 36.860001 51.029999 4294967040
50.669998 38.009998 51.18 4294967040
50.669998 38.139999 50.919998 4294967040
50.669998 38.310001 50.919998 4294967040
50.669998 38.439999 50.68 4294967040
50.259998 37.330002 50.810001 4294967040
50.25 37.790001 50.66 4294967040
50.240002 37.98 50.880001 4294967040
50.240002 38.139999 50.799999 4294967040
50.23 38.32 50.93 4294967040
50.220001 38.470001 50.91 4294967040
50.029999 36.459999 51 4294967040
50.029999 36.900002 50.579998 4294967040
50.009998 37.709999 50.560001 4294967040
50 37.880001 50.59 4294967040
49.990002 38.07 50.82 4294967040
49.990002 38.23 50.889999 4294967040
49.98 38.400002 50.900002 4294967040
49.98 38.540001 50.73 4294967040
50.150002 36.189999 50.57 4294967040
50.099998 38 50.779999 4294967040
50.09 38.169998 50.84 4294967040
50.09 38.349998 50.939999 4294967040
50.080002 38.509998 50.889999 4294967040
50.07 36.490002 50.959999 4294967040
50.009998 37.43 52.119999 4294967040
50.040001 37.73 50.540001 4294967040
50.029999 37.900002 50.639999 4294967040
50.02 38.09 50.82 4294967040
50.02 38.259998 50.91 4294967040
50.009998 38.419998 50.900002 4294967040
50.02 38.549999 50.610001 4294967040
49.77 36.220001 50.549999 4294967040
49.75 36.75 50.810001 4294967040
49.75 36.880001 50.619999 4294967040
49.75 37.040001 50.59 4294967040
49.73 37.240002 50.93 4294967040
49.720001 37.439999 51.200001 4294967040
49.709999 37.77 51.220001 4294967040
49.709999 37.919998 51.169998 4294967040
49.700001 38.099998 51.290001 4294967040
49.700001 38.240002 51.099998 4294967040
49.700001 38.369999 50.860001 4294967040
49.689999 38.540001 50.93 4294967040
49.240002 36.59 50.950001 4294967040
49.23 36.790001 51.200001 4294967040
49.220001 36.98 51.450001 4294967040
49.220001 37.110001 51.209999 4294967040
49.209999 37.25 51.09 4294967040
49.209999 37.43 51.189999 4294967040
49.209999 37.57 51.040001 4294967040
49.200001 37.75 51.150002 4294967040
49.200001 37.889999 50.919998 4294967040
49.18 38.099998 51.380001 4294967040
49.18 38.259998 51.380001 4294967040
49.18 38.389999 51.16 4294967040
49.18 38.529999 50.950001 4294967040
49.18 38.650002 50.599998 4294967040
49.060001 36.330002 50.549999 4294967040
49.049999 36.540001 50.950001 4294967040
49.049999 36.700001 50.939999 4294967040
49.029999 36.900002 51.279999 4294967040
49.029999 37.07 51.34 4294967040
49.029999 37.209999 51.16 4294967040
49.02 37.380001 51.150002 4294967040
49.02 37.509998 50.91 4294967040
49.02 37.650002 50.779999 4294967040
49.009998 37.849998 51.099998 4294967040
49 38.029999 51.25 4294967040
48.990002 38.189999 51.299999 4294967040
48.990002 38.360001 51.279999 4294967040
48.990002 38.48 50.939999 4294967040
48.990002 38.630001 50.799999 4294967040
49.119999 36.310001 50.57 4294967040
49.110001 36.52 50.93 4294967040
49.099998 36.689999 50.970001 4294967040
49.09 36.900002 51.349998 4294967040
49.080002 37.07 51.369999 4294967040
49.080002 37.200001 51.16 4294967040
49.07 37.369999 51.220001 4294967040
49.080002 37.490002 50.860001 4294967040
49.07 37.639999 50.82 4294967040
49.060001 37.84 51.150002 4294967040
49.060001 37.98 50.919998 4294967040
49.049999 38.189999 51.32 4294967040
49.040001 38.349998 51.349998 4294967040
49.049999 38.470001 50.939999 4294967040
49.040001 38.630001 50.900002 4294967040
49.200001 36.299999 50.579998 4294967040
49.189999 36.490002 50.790001 4294967040
49.18 36.68 50.950001 4294967040
49.16 36.889999 51.380001 4294967040
49.150002 37.060001 51.400002 4294967040
49.16 37.189999 51.110001 4294967040
49.150002 37.360001 51.189999 4294967040
49.150002 37.490002 50.970001 4294967040
49.139999 37.669998 51.16 4294967040
49.130001 37.849998 51.290001 4294967040
49.130001 37.98 51.060001 4294967040
49.119999 38.18 51.360001 4294967040
49.110001 38.349998 51.369999 4294967040
49.119999 38.459999 50.950001 4294967040
49.110001 38.619999 50.919998 4294967040
48.959999 36.310001 50.579998 4294967040
48.939999 36.509998 50.889999 4294967040
48.939999 36.68 50.919998 4294967040
48.919998 36.889999 51.299999 4294967040
48.919998 37.049999 51.32 4294967040
48.91 37.220001 51.329998 4294967040
48.91 37.360001 51.139999 4294967040
48.900002 37.52 51.139999 4294967040
48.91 37.639999 50.779999 4294967040
48.889999 37.830002 51.110001 4294967040
48.889999 37.990002 51.029999 4294967040
48.880001 38.18 51.299999 4294967040
48.869999 38.34 51.329998 4294967040
48.869999 38.48 51.049999 4294967040
48.869999 38.630001 50.950001 4294967040
48.869999 38.75 50.619999 4294967040
48.549999 36.41 50.599998 4294967040
48.540001 36.610001 50.93 4294967040
48.529999 36.779999 50.959999 4294967040
48.509998 36.990002 51.369999 4294967040
48.509998 37.150002 51.400002 4294967040
48.5 37.310001 51.32 4294967040
48.5 37.439999 51.130001 4294967040
48.5 37.599998 51.07 4294967040
48.490002 37.759998 51.029999 4294967040
48.490002 37.919998 51.009998 4294967040
48.490002 38.049999 50.759998 4294967040
48.470001 38.259998 51.209999 4294967040
48.459999 38.439999 51.389999 4294967040
48.459999 38.57 51.110001 4294967040
48.459999 38.709999 50.849998 4294967040
48.41 36.52 50.91 4294967040
48.41 36.689999 50.950001 4294967040
48.400002 36.869999 51.130001 4294967040
48.389999 37.049999 51.310001 4294967040
48.389999 37.200001 51.130001 4294967040
48.380001 37.389999 51.380001 4294967040
48.369999 37.529999 51.200001 4294967040
48.369999 37.669998 51.009998 4294967040
48.369999 37.84 51.110001 4294967040
48.360001 37.990002 50.970001 4294967040
48.349998 38.169998 51.220001 4294967040
48.34 38.349998 51.360001 4294967040
48.34 38.52 51.369999 4294967040
48.34 38.630001 50.880001 4294967040
48.34 38.759998 50.639999 4294967040
48.650002 36.380001 50.650002 4294967040
48.639999 36.580002 50.919998 4294967040
48.630001 36.75 50.950001 4294967040
48.610001 36.970001 51.43 4294967040
48.610001 37.130001 51.41 4294967040
48.610001 37.25 51.09 4294967040
48.599998 37.419998 51.150002 4294967040
48.599998 37.580002 51.130001 4294967040
48.599998 37.689999 50.739998 4294967040
48.59 37.880001 50.939999 4294967040
48.59 38.02 50.68 4294967040
48.580002 38.23 51.119999 4294967040
48.57 38.41 51.349998 4294967040
48.560001 38.560001 51.25 4294967040
48.57 38.689999 50.889999 4294967040
48.669998 36.470001 50.849998 4294967040
48.66 36.630001 50.91 4294967040
48.650002 36.830002 51.139999 4294967040
48.630001 37.02 51.41 4294967040
48.630001 37.18 51.329998 4294967040
48.630001 37.32 51.150002 4294967040
48.619999 37.5 51.259998 4294967040
48.619999 37.619999 51.009998 4294967040
48.619999 37.779999 51 4294967040
48.610001 37.939999 50.970001 4294967040
48.610001 38.080002 50.779999 4294967040
48.59 38.310001 51.34 4294967040
48.580002 38.470001 51.389999 4294967040
48.59 38.59 50.93 4294967040
48.59 38.720001 50.650002 4294967040
48.18 36.43 50.59 4294967040
48.16 36.639999 50.950001 4294967040
48.16 36.810001 51.009998 4294967040
48.139999 37.009998 51.34 4294967040
48.139999 37.16 51.310001 4294967040
48.130001 37.349998 51.459999 4294967040
48.119999 37.52 51.5 4294967040
48.119999 37.669998 51.450001 4294967040
48.110001 37.810001 51.310001 4294967040
48.119999 37.939999 51.049999 4294967040
48.110001 38.099998 51.02 4294967040
48.099998 38.299999 51.400002 4294967040
48.09 38.470001 51.43 4294967040
48.09 38.619999 51.25 4294967040
48.09 38.75 51 4294967040
47.790001 36.619999 50.959999 4294967040
47.779999 36.810001 51.130001 4294967040
47.77 37.029999 51.579998 4294967040
47.759998 37.200001 51.66 4294967040
47.75 37.360001 51.68 4294967040
47.75 37.529999 51.77 4294967040
47.740002 37.669998 51.650002 4294967040
47.740002 37.84 51.720001 4294967040
47.73 37.990002 51.549999 4294967040
47.73 38.130001 51.369999 4294967040
47.73 38.27 51.239998 4294967040
47.720001 38.459999 51.470001 4294967040
47.720001 38.610001 51.400002 4294967040
47.720001 38.73 50.98 4294967040
47.720001 38.849998 50.599998 4294967040
47.84 36.599998 50.93 4294967040
47.830002 36.77 50.989998 4294967040
47.810001 36.990002 51.560001 4294967040
47.810001 37.169998 51.639999 4294967040
47.799999 37.330002 51.709999 4294967040
47.790001 37.509998 51.779999 4294967040
47.790001 37.66 51.73 4294967040
47.779999 37.830002 51.720001 4294967040
47.779999 37.959999 51.540001 4294967040
47.779999 38.09 51.32 4294967040
47.779999 38.259998 51.349998 4294967040
47.77 38.43 51.450001 4294967040
47.77 38.59 51.380001 4294967040
47.77 38.709999 50.98 4294967040
47.77 38.84 50.650002 4294967040
48 36.5 50.739998 4294967040
47.990002 36.68 50.959999 4294967040
47.98 36.860001 51.099998 4294967040
47.959999 37.080002 51.529999 4294967040
47.950001 37.259998 51.619999 4294967040
47.950001 37.41 51.619999 4294967040
47.939999 37.57 51.630001 4294967040
47.939999 37.73 51.59 4294967040
47.939999 37.869999 51.419998 4294967040
47.939999 38.009998 51.189999 4294967040
47.939999 38.139999 50.93 4294967040
47.919998 38.360001 51.439999 4294967040
47.919998 38.509998 51.389999 4294967040
47.91 38.66 51.27 4294967040
47.919998 38.77 50.77 4294967040
47.790001 36.580002 50.91 4294967040
47.779999 36.759998 51.029999 4294967040
47.759998 36.990002 51.57 4294967040
47.759998 37.16 51.610001 4294967040
47.75 37.330002 51.700001 4294967040
47.740002 37.5 51.799999 4294967040
47.740002 37.650002 51.739998 4294967040
47.73 37.810001 51.720001 4294967040
47.73 37.959999 51.66 4294967040
47.73 38.09 51.369999 4294967040
47.73 38.25 51.299999 4294967040
47.720001 38.43 51.459999 4294967040
47.709999 38.580002 51.400002 4294967040
47.720001 38.689999 50.989998 4294967040
47.720001 38.82 50.630001 4294967040
47.25 36.700001 50.98 4294967040
47.240002 36.919998 51.41 4294967040
47.23 37.110001 51.59 4294967040
47.220001 37.279999 51.700001 4294967040
47.220001 37.439999 51.73 4294967040
47.209999 37.610001 51.77 4294967040
47.209999 37.759998 51.759998 4294967040
47.200001 37.919998 51.68 4294967040
47.200001 38.07 51.619999 4294967040
47.200001 38.220001 51.48 4294967040
47.200001 38.34 51.09 4294967040
47.189999 38.52 51.380001 4294967040
47.189999 38.68 51.34 4294967040
47.189999 38.810001 51.02 4294967040
47.189999 38.93 50.639999 4294967040
47.07 36.630001 50.810001 4294967040
47.060001 36.830002 51.040001 4294967040
47.049999 37.029999 51.349998 4294967040
47.040001 37.23 51.650002 4294967040
47.029999 37.389999 51.650002 4294967040
47.029999 37.560001 51.709999 4294967040
47.029999 37.700001 51.529999 4294967040
47.02 37.860001 51.619999 4294967040
47.02 37.98 51.23 4294967040
47.02 38.16 51.349998 4294967040
47.009998 38.32 51.290001 4294967040
47.009998 38.490002 51.439999 4294967040
47 38.650002 51.43 4294967040
47 38.790001 51.239998 4294967040
47 38.91 50.869999 4294967040
47.27 36.689999 50.98 4294967040
47.259998 36.900002 51.369999 4294967040
47.25 37.09 51.599998 4294967040
47.240002 37.259998 51.700001 4294967040
47.240002 37.43 51.739998 4294967040
47.23 37.599998 51.810001 4294967040
47.23 37.759998 51.759998 4294967040
47.23 37.91 51.689999 4294967040
47.220001 38.060001 51.610001 4294967040
47.220001 38.209999 51.48 4294967040
47.23 38.310001 50.98 4294967040
47.209999 38.52 51.380001 4294967040
47.209999 38.669998 51.290001 4294967040
47.209999 38.810001 51.009998 4294967040
47.220001 38.93 50.639999 4294967040
47.490002 36.68 50.989998 4294967040
47.470001 36.900002 51.41 4294967040
47.459999 37.09 51.599998 4294967040
47.450001 37.259998 51.700001 4294967040
47.450001 37.419998 51.77 4294967040
47.439999 37.599998 51.84 4294967040
47.439999 37.75 51.799999 4294967040
47.439999 37.889999 51.639999 4294967040
47.43 38.049999 51.650002 4294967040
47.43 38.189999 51.419998 4294967040
47.43 38.34 51.329998 4294967040
47.43 38.509998 51.43 4294967040
47.43 38.639999 51.16 4294967040
47.43 38.779999 50.959999 4294967040
47.439999 38.91 50.619999 4294967040
47.189999 36.59 50.669998 4294967040
47.18 36.799999 51 4294967040
47.16 37.029999 51.549999 4294967040
47.150002 37.209999 51.66 4294967040
47.150002 37.369999 51.689999 4294967040
47.139999 37.540001 51.77 4294967040
47.139999 37.700001 51.739998 4294967040
47.130001 37.849998 51.66 4294967040
47.130001 38 51.549999 4294967040
47.130001 38.150002 51.48 4294967040
47.130001 38.299999 51.310001 4294967040
47.119999 38.459999 51.369999 4294967040
47.119999 38.619999 51.380001 4294967040
47.110001 38.779999 51.389999 4294967040
47.119999 38.889999 50.950001 4294967040
46.84 36.66 50.889999 4294967040
46.830002 36.84 51.009998 4294967040
46.830002 37.009998 51 4294967040
46.82 37.209999 51.279999 4294967040
46.810001 37.369999 51.349998 4294967040
46.810001 37.529999 51.329998 4294967040
46.799999 37.700001 51.380001 4294967040
46.799999 37.849998 51.34 4294967040
46.790001 38.02 51.369999 4294967040
46.790001 38.169998 51.32 4294967040
46.790001 38.32 51.18 4294967040
46.779999 38.509998 51.400002 4294967040
46.77 38.669998 51.470001 4294967040
46.779999 38.82 51.290001 4294967040
46.779999 38.939999 50.970001 4294967040
46.889999 36.580002 50.619999 4294967040
46.880001 36.790001 51.009998 4294967040
46.880001 36.959999 51.02 4294967040
46.869999 37.130001 51.150002 4294967040
46.860001 37.32 51.360001 4294967040
46.849998 37.5 51.509998 4294967040
46.849998 37.66 51.43 4294967040
46.860001 37.77 51.029999 4294967040
46.84 37.970001 51.439999 4294967040
46.84 38.119999 51.259998 4294967040
46.84 38.27 51.209999 4294967040
46.830002 38.450001 51.299999 4294967040
46.830002 38.630001 51.489998 4294967040
46.830002 38.77 51.27 4294967040
46.830002 38.889999 50.950001 4294967040
46.84 39.02 50.630001 4294967040
47.25 36.68 50.989998 4294967040
47.23 36.889999 51.299999 4294967040
47.220001 37.09 51.59 4294967040
47.209999 37.27 51.689999 4294967040
47.209999 37.43 51.709999 4294967040
47.200001 37.59 51.779999 4294967040
47.200001 37.75 51.739998 4294967040
47.200001 37.900002 51.689999 4294967040
47.200001 38.060001 51.619999 4294967040
47.200001 38.209999 51.48 4294967040
47.209999 38.32 50.989998 4294967040
47.200001 38.509998 51.34 4294967040
47.189999 38.669998 51.349998 4294967040
47.200001 38.799999 51.009998 4294967040
47.209999 38.919998 50.639999 4294967040
47.279999 36.689999 50.970001 4294967040
47.259998 36.889999 51.32 4294967040
47.25 37.09 51.540001 4294967040
47.240002 37.259998 51.709999 4294967040
47.23 37.43 51.73 4294967040
47.23 37.599998 51.790001 4294967040
47.23 37.759998 51.77 4294967040
47.220001 37.91 51.720001 4294967040
47.220001 38.060001 51.630001 4294967040
47.220001 38.209999 51.489998 4294967040
47.23 38.32 51.07 4294967040
47.220001 38.509998 51.329998 4294967040
47.220001 38.68 51.360001 4294967040
47.220001 38.799999 51 4294967040
47.23 38.93 50.66 4294967040
46.700001 36.709999 51.009998 4294967040
46.700001 36.869999 51.009998 4294967040
46.689999 37.209999 51.139999 4294967040
46.68 37.52 50.989998 4294967040
46.669998 37.880001 51.25 4294967040
46.66 38.029999 51.239998 4294967040
46.66 38.200001 51.34 4294967040
46.66 38.349998 51.189999 4294967040
46.650002 38.52 51.349998 4294967040
46.639999 38.700001 51.419998 4294967040
46.639999 38.860001 51.439999 4294967040
46.650002 38.98 50.959999 4294967040
46.220001 37.57 51.279999 4294967040
46.209999 37.900002 51.290001 4294967040
46.209999 38.060001 51.239998 4294967040
46.209999 38.209999 51.150002 4294967040
46.200001 38.380001 51.25 4294967040
46.200001 38.560001 51.389999 4294967040
46.189999 38.709999 51.380001 4294967040
46.23 37.09 51.02 4294967040
46.220001 37.580002 51.009998 4294967040
46.209999 37.919998 51.18 4294967040
46.209999 38.060001 50.989998 4294967040
46.200001 38.25 51.27 4294967040
46.200001 38.419998 51.299999 4294967040
46.200001 38.580002 51.239998 4294967040
46.189999 38.75 51.349998 4294967040
46.380001 37.919998 51.25 4294967040
46.380001 38.07 51.18 4294967040
46.369999 38.240002 51.209999 4294967040
46.369999 38.400002 51.279999 4294967040
46.360001 38.580002 51.439999 4294967040
46.360001 38.740002 51.400002 4294967040
46.349998 38.900002 51.419998 4294967040
46.369999 39 50.829998 4294967040
46.220001 37.560001 51.060001 4294967040
46.209999 37.91 51.209999 4294967040
46.209999 38.040001 50.98 4294967040
46.200001 38.23 51.23 4294967040
46.189999 38.41 51.380001 4294967040
46.189999 38.57 51.439999 4294967040
46.189999 38.73 51.369999 4294967040
45.970001 37.040001 51.049999 4294967040
45.98 36.860001 51.029999 4294967040
45.959999 36.830002 50.669998 4294967040
46.279999 38.84 51.369999 4294967040
46.290001 38.630001 51.380001 4294967040
46.290001 38.459999 51.32 4294967040
46.290001 38.34 51.169998 4294967040
46.279999 38.32 50.790001 4294967040
46.330002 37.84 51.419998 4294967040
46.330002 37.68 51.329998 4294967040
46.34 37.459999 51.400002 4294967040
46.349998 37.299999 51.299999 4294967040
46.34 37.220001 51.040001 4294967040
46.349998 37.040001 51.029999 4294967040
46.349998 36.849998 51.02 4294967040
46.34 36.799999 50.68 4294967040
46.349998 36.639999 50.619999 4294967040
46.610001 38.869999 51.52 4294967040
46.619999 38.700001 51.450001 4294967040
46.619999 38.52 51.43 4294967040
46.619999 38.380001 51.299999 4294967040
46.630001 38.200001 51.259998 4294967040
46.650002 37.950001 51.400002 4294967040
46.650002 37.759998 51.380001 4294967040
46.66 37.580002 51.34 4294967040
46.669998 37.349998 51.419998 4294967040
46.669998 37.259998 51.18 4294967040
46.669998 37.150002 51.02 4294967040
46.68 36.939999 51.029999 4294967040
46.68 36.759998 51.009998 4294967040
46.669998 36.740002 50.599998 4294967040
46.799999 38.630001 51.459999 4294967040
46.799999 38.459999 51.41 4294967040
46.810001 38.290001 51.360001 4294967040
46.82 38.080002 51.400002 4294967040
46.82 37.889999 51.400002 4294967040
46.830002 37.689999 51.419998 4294967040
46.84 37.48 51.450001 4294967040
46.849998 37.27 51.48 4294967040
46.830002 37.259998 51.040001 4294967040
46.84 37.09 51.009998 4294967040
46.849998 36.900002 51.02 4294967040
46.860001 36.709999 51 4294967040
46.84 36.68 50.630001 4294967040
47.049999 38.740002 51.509998 4294967040
47.049999 38.580002 51.419998 4294967040
47.060001 38.400002 51.400002 4294967040
47.07 38.16 51.489998 4294967040
47.09 37.849998 51.73 4294967040
47.099998 37.650002 51.739998 4294967040
47.110001 37.470001 51.720001 4294967040
47.110001 37.310001 51.66 4294967040
47.110001 37.150002 51.59 4294967040
47.110001 37.060001 51.34 4294967040
47.09 37.029999 50.989998 4294967040
47.099998 36.830002 50.989998 4294967040
47.099998 36.669998 50.91 4294967040
47.09 36.610001 50.599998 4294967040
47.450001 38.650002 51.43 4294967040
47.450001 38.48 51.360001 4294967040
47.48 38.139999 51.68 4294967040
47.490002 37.900002 51.759998 4294967040
47.5 37.68 51.82 4294967040
47.509998 37.5 51.790001 4294967040
47.509998 37.34 51.709999 4294967040
47.509998 37.189999 51.630001 4294967040
47.509998 37.049999 51.5 4294967040
47.509998 36.91 51.400002 4294967040
47.5 36.900002 50.970001 4294967040
47.5 36.700001 50.970001 4294967040
47.490002 36.639999 50.669998 4294967040
47.5 36.490002 50.57 4294967040
47.639999 38.709999 51.419998 4294967040
47.650002 38.490002 51.470001 4294967040
47.650002 38.299999 51.439999 4294967040
47.68 37.98 51.73 4294967040
47.68 37.790001 51.73 4294967040
47.689999 37.59 51.739998 4294967040
47.700001 37.400002 51.739998 4294967040
47.700001 37.25 51.650002 4294967040
47.709999 37.060001 51.630001 4294967040
47.700001 36.919998 51.509998 4294967040
47.68 36.959999 50.98 4294967040
47.689999 36.77 50.98 4294967040
47.689999 36.599998 50.93 4294967040
47.68 36.560001 50.579998 4294967040
47.650002 38.77 51.310001 4294967040
47.669998 38.509998 51.470001 4294967040
47.669998 38.330002 51.419998 4294967040
47.689999 38.049999 51.619999 4294967040
47.709999 37.799999 51.73 4294967040
47.709999 37.610001 51.73 4294967040
47.720001 37.400002 51.759998 4294967040
47.720001 37.240002 51.689999 4294967040
47.73 37.07 51.650002 4294967040
47.73 36.939999 51.5 4294967040
47.709999 36.950001 51.040001 4294967040
47.709999 36.779999 50.98 4294967040
47.720001 36.599998 50.950001 4294967040
47.700001 36.560001 50.59 4294967040
47.830002 38.720001 51.299999 4294967040
47.849998 38.459999 51.450001 4294967040
47.849998 38.290001 51.389999 4294967040
47.849998 38.110001 51.369999 4294967040
47.880001 37.779999 51.66 4294967040
47.889999 37.549999 51.73 4294967040
47.889999 37.360001 51.720001 4294967040
47.900002 37.220001 51.619999 4294967040
47.900002 37.049999 51.560001 4294967040
47.889999 36.98 51.279999 4294967040
47.880001 36.900002 51.040001 4294967040
47.880001 36.73 50.98 4294967040
47.880001 36.580002 50.869999 4294967040
47.869999 36.509998 50.579998 4294967040
48.43 38.560001 51.389999 4294967040
48.43 38.360001 51.400002 4294967040
48.43 38.220001 51.259998 4294967040
48.439999 38.049999 51.209999 4294967040
48.439999 37.849998 51.23 4294967040
48.439999 37.700001 51.139999 4294967040
48.459999 37.41 51.349998 4294967040
48.470001 37.209999 51.380001 4294967040
48.48 37 51.400002 4294967040
48.459999 36.970001 51.02 4294967040
48.459999 36.810001 50.939999 4294967040
48.470001 36.619999 50.959999 4294967040
48.459999 36.529999 50.720001 4294967040
48.459999 36.389999 50.579998 4294967040
48.919998 38.43 51.259998 4294967040
48.93 38.16 51.41 4294967040
48.93 38.080002 51.150002 4294967040
48.919998 37.98 50.950001 4294967040
48.93 37.740002 51.049999 4294967040
48.939999 37.529999 51.07 4294967040
48.959999 37.23 51.329998 4294967040
48.959999 37.029999 51.349998 4294967040
48.959999 36.900002 51.209999 4294967040
48.959999 36.82 50.919998 4294967040
48.959999 36.630001 50.939999 4294967040
48.959999 36.48 50.849998 4294967040
48.959999 36.400002 50.57 4294967040
49.139999 37.810001 51.299999 4294967040
49.119999 37.799999 50.880001 4294967040
49.139999 37.48 51.18 4294967040
49.16 37.220001 51.349998 4294967040
49.169998 36.990002 51.419998 4294967040
49.16 36.889999 51.209999 4294967040
49.16 36.810001 50.959999 4294967040
49.16 36.610001 50.959999 4294967040
49.16 36.48 50.810001 4294967040
49.150002 36.389999 50.579998 4294967040
49.150002 36.25 50.450001 4294967040
49.040001 38.369999 51.369999 4294967040
49.040001 38.200001 51.310001 4294967040
49.040001 37.950001 51.02 4294967040
49.040001 37.82 50.849998 4294967040
49.040001 37.639999 50.84 4294967040
49.07 37.259998 51.23 4294967040
49.080002 36.970001 51.450001 4294967040
49.07 36.919998 51.130001 4294967040
49.07 36.810001 50.950001 4294967040
49.080002 36.610001 50.959999 4294967040
49.080002 36.459999 50.860001 4294967040
49.07 36.389999 50.59 4294967040
49.07 36.259998 50.439999 4294967040
49.23 37.82 51.079998 4294967040
49.240002 37.599998 51.119999 4294967040
49.259998 37.32 51.32 4294967040
49.27 37.09 51.43 4294967040
49.27 36.900002 51.41 4294967040
49.25 36.919998 50.939999 4294967040
49.259998 36.720001 50.950001 4294967040
49.259998 36.560001 50.849998 4294967040
49.259998 36.450001 50.66 4294967040
49.259998 36.290001 50.59 4294967040
49.82 38.139999 50.989998 4294967040
49.82 38.040001 50.790001 4294967040
49.82 37.919998 50.619999 4294967040
49.82 37.709999 50.650002 4294967040
49.830002 37.52 50.619999 4294967040
49.830002 37.330002 50.619999 4294967040
49.84 37.16 50.579998 4294967040
49.849998 36.889999 50.75 4294967040
49.860001 36.630001 50.900002 4294967040
49.869999 36.43 50.91 4294967040
49.860001 36.349998 50.650002 4294967040
49.860001 36.189999 50.560001 4294967040
50.540001 38.369999 50.970001 4294967040
50.549999 38.189999 50.93 4294967040
50.560001 37.91 51.139999 4294967040
50.560001 37.709999 51.16 4294967040
50.57 37.540001 51.099998 4294967040
50.580002 37.259998 51.299999 4294967040
50.59 37.049999 51.329998 4294967040
50.59 36.860001 51.310001 4294967040
50.59 36.68 51.290001 4294967040
50.59 36.619999 51 4294967040
50.59 36.459999 50.900002 4294967040
50.599998 36.27 50.919998 4294967040
50.59 36.23 50.549999 4294967040
50.849998 38.279999 50.919998 4294967040
50.860001 37.91 51.290001 4294967040
50.869999 37.700001 51.329998 4294967040
50.869999 37.52 51.310001 4294967040
50.880001 37.380001 51.200001 4294967040
50.869999 37.27 51.009998 4294967040
50.889999 36.939999 51.299999 4294967040
50.889999 36.759998 51.27 4294967040
50.900002 36.549999 51.299999 4294967040
50.889999 36.540001 50.91 4294967040
50.889999 36.349998 50.91 4294967040
50.900002 36.200001 50.790001 4294967040
50.889999 36.110001 50.560001 4294967040
50.560001 38.299999 50.959999 4294967040
50.57 38.02 51.119999 4294967040
50.580002 37.790001 51.200001 4294967040
50.59 37.619999 51.139999 4294967040
50.59 37.41 51.18 4294967040
50.599998 37.169998 51.279999 4294967040
50.599998 36.990002 51.239998 4294967040
50.610001 36.790001 51.290001 4294967040
50.610001 36.630001 51.200001 4294967040
50.610001 36.560001 50.93 4294967040
50.610001 36.369999 50.900002 4294967040
50.610001 36.25 50.73 4294967040
50.610001 36.130001 50.560001 4294967040
50.25 38.259998 50.93 4294967040
50.259998 38.07 50.919998 4294967040
50.25 38 50.619999 4294967040
50.27 37.669998 50.91 4294967040
50.279999 37.389999 51.110001 4294967040
50.290001 37.18 51.169998 4294967040
50.299999 36.93 51.279999 4294967040
50.299999 36.790001 51.169998 4294967040
50.299999 36.689999 50.939999 4294967040
50.299999 36.509998 50.91 4294967040
50.310001 36.330002 50.869999 4294967040
50.299999 36.279999 50.549999 4294967040
50.299999 36.099998 50.529999 4294967040
50.48 38.369999 50.989998 4294967040
50.490002 38.189999 50.959999 4294967040
50.490002 37.990002 50.98 4294967040
50.509998 37.700001 51.189999 4294967040
50.509998 37.509998 51.200001 4294967040
50.52 37.299999 51.220001 4294967040
50.529999 37.049999 51.329998 4294967040
50.529999 36.869999 51.310001 4294967040
50.540001 36.689999 51.290001 4294967040
50.529999 36.639999 50.950001 4294967040
50.529999 36.459999 50.919998 4294967040
50.540001 36.279999 50.91 4294967040
50.529999 36.23 50.57 4294967040
50.529999 36.07 50.489998 4294967040
50.869999 38.32 50.919998 4294967040
50.889999 37.950001 51.290001 4294967040
50.900002 37.75 51.32 4294967040
50.900002 37.580002 51.27 4294967040
50.900002 37.459999 51.099998 4294967040
50.900002 37.290001 51.049999 4294967040
50.919998 36.959999 51.360001 4294967040
50.919998 36.799999 51.290001 4294967040
50.93 36.580002 51.34 4294967040
50.919998 36.580002 50.91 4294967040
50.919998 36.389999 50.91 4294967040
50.919998 36.209999 50.869999 4294967040
50.919998 36.16 50.540001 4294967040
50.919998 36.009998 50.439999 4294967040
50.880001 38.41 50.889999 4294967040
50.900002 38.07 51.189999 4294967040
50.91 37.830002 51.32 4294967040
50.91 37.639999 51.310001 4294967040
50.919998 37.439999 51.32 4294967040
50.919998 37.290001 51.23 4294967040
50.93 37.080002 51.259998 4294967040
50.93 36.860001 51.32 4294967040
50.939999 36.66 51.32 4294967040
50.93 36.580002 51.079998 4294967040
50.93 36.470001 50.900002 4294967040
50.93 36.27 50.900002 4294967040
50.919998 36.240002 50.549999 4294967040
50.93 36.040001 50.540001 4294967040
50.279999 38.290001 50.970001 4294967040
50.279999 38.110001 50.93 4294967040
50.27 38.040001 50.630001 4294967040
50.299999 37.619999 51.119999 4294967040
50.310001 37.419998 51.150002 4294967040
50.32 37.18 51.259998 4294967040
50.330002 36.950001 51.32 4294967040
50.330002 36.810001 51.23 4294967040
50.32 36.720001 50.989998 4294967040
50.32 36.549999 50.91 4294967040
50.32 36.369999 50.889999 4294967040
50.310001 36.310001 50.579998 4294967040
50.32 36.130001 50.57 4294967040
49.849998 38.18 50.939999 4294967040
49.84 38.040001 50.799999 4294967040
49.84 37.900002 50.68 4294967040
49.849998 37.720001 50.66 4294967040
49.849998 37.529999 50.650002 4294967040
49.860001 37.349998 50.619999 4294967040
49.860001 37.16 50.59 4294967040
49.880001 36.869999 50.82 4294967040
49.889999 36.619999 50.93 4294967040
49.889999 36.450001 50.900002 4294967040
49.889999 36.360001 50.66 4294967040
49.889999 36.200001 50.579998 4294967040
49.950001 37.77 50.939999 4294967040
49.959999 37.509998 51.079998 4294967040
49.950001 37.419998 50.829998 4294967040
49.950001 37.299999 50.639999 4294967040
49.950001 37.130001 50.599998 4294967040
49.970001 36.830002 50.860001 4294967040
49.98 36.610001 50.919998 4294967040
49.990002 36.419998 50.91 4294967040
49.970001 36.369999 50.57 4294967040
49.98 36.18 50.560001 4294967040
50.389999 38.41 51.060001 4294967040
50.389999 38.259998 50.959999 4294967040
50.389999 38.080002 50.919998 4294967040
50.400002 37.869999 50.939999 4294967040
50.41 37.610001 51.110001 4294967040
50.43 37.32 51.32 4294967040
50.439999 37.139999 51.290001 4294967040
50.439999 36.93 51.329998 4294967040
50.450001 36.73 51.34 4294967040
50.439999 36.669998 51.040001 4294967040
50.439999 36.529999 50.919998 4294967040
50.450001 36.34 50.93 4294967040
50.439999 36.279999 50.599998 4294967040
50.439999 36.119999 50.540001 4294967040
50.560001 38.369999 51 4294967040
50.57 38.189999 50.950001 4294967040
50.580002 37.919998 51.099998 4294967040
50.580002 37.77 51.009998 4294967040
50.59 37.57 51.040001 4294967040
50.610001 37.259998 51.299999 4294967040
50.610001 37.07 51.290001 4294967040
50.619999 36.869999 51.310001 4294967040
50.619999 36.689999 51.259998 4294967040
50.610001 36.619999 50.970001 4294967040
50.619999 36.450001 50.939999 4294967040
50.619999 36.27 50.919998 4294967040
50.610001 36.220001 50.57 4294967040
50.619999 36.049999 50.52 4294967040
50.18 38.299999 50.93 4294967040
50.18 38.130001 50.869999 4294967040
50.169998 38.009998 50.689999 4294967040
50.18 37.790001 50.75 4294967040
50.200001 37.529999 50.900002 4294967040
50.209999 37.279999 51.02 4294967040
50.209999 37.130001 50.939999 4294967040
50.209999 37.009998 50.77 4294967040
50.220001 36.759998 50.900002 4294967040
50.23 36.560001 50.889999 4294967040
50.23 36.369999 50.889999 4294967040
50.220001 36.32 50.57 4294967040
50.220001 36.139999 50.529999 4294967040
49.75 38.02 51.32 4294967040
49.75 37.900002 51.18 4294967040
49.740002 37.77 51.02 4294967040
49.73 37.720001 50.700001 4294967040
49.740002 37.52 50.700001 4294967040
49.740002 37.369999 50.599998 4294967040
49.740002 37.18 50.560001 4294967040
49.75 36.939999 50.689999 4294967040
49.77 36.66 50.889999 4294967040
49.779999 36.470001 50.880001 4294967040
49.77 36.349998 50.720001 4294967040
49.77 36.220001 50.57 4294967040
49.82 38.110001 51.25 4294967040
49.810001 38.009998 51.009998 4294967040
49.799999 37.91 50.82 4294967040
49.790001 37.799999 50.619999 4294967040
49.799999 37.59 50.639999 4294967040
49.810001 37.400002 50.630001 4294967040
49.810001 37.23 50.57 4294967040
49.82 37.029999 50.599998 4294967040
49.849998 36.700001 50.900002 4294967040
49.860001 36.5 50.93 4294967040
49.860001 36.34 50.849998 4294967040
49.84 36.27 50.549999 4294967040
50.330002 38.25 50.959999 4294967040
50.330002 38.07 50.91 4294967040
50.330002 37.959999 50.720001 4294967040
50.360001 37.610001 51.07 4294967040
50.380001 37.32 51.310001 4294967040
50.380001 37.130001 51.279999 4294967040
50.400002 36.919998 51.329998 4294967040
50.400002 36.73 51.32 4294967040
50.389999 36.66 51.009998 4294967040
50.389999 36.52 50.900002 4294967040
50.400002 36.330002 50.900002 4294967040
50.380001 36.290001 50.560001 4294967040
50.389999 36.099998 50.529999 4294967040
50.66 38.310001 50.98 4294967040
50.68 38.029999 51.16 4294967040
50.689999 37.82 51.200001 4294967040
50.700001 37.59 51.27 4294967040
50.700001 37.439999 51.169998 4294967040
50.709999 37.23 51.239998 4294967040
50.700001 37.110001 51.049999 4294967040
50.720001 36.82 51.279999 4294967040
50.73 36.610001 51.32 4294967040
50.709999 36.59 50.900002 4294967040
50.720001 36.400002 50.889999 4294967040
50.73 36.220001 50.869999 4294967040
50.720001 36.169998 50.540001 4294967040
50.259998 38.330002 50.970001 4294967040
50.259998 38.18 50.869999 4294967040
50.259998 38.02 50.779999 4294967040
50.27 37.84 50.75 4294967040
50.299999 37.43 51.25 4294967040
50.32 37.18 51.360001 4294967040
50.32 37.02 51.290001 4294967040
50.310001 36.91 51.09 4294967040
50.310001 36.75 51.02 4294967040
50.310001 36.599998 50.91 4294967040
50.32 36.419998 50.880001 4294967040
50.310001 36.310001 50.700001 4294967040
50.310001 36.169998 50.560001 4294967040
49.849998 38.130001 51.299999 4294967040
49.830002 38.099998 50.93 4294967040
49.830002 37.970001 50.790001 4294967040
49.82 37.830002 50.66 4294967040
49.830002 37.639999 50.650002 4294967040
49.830002 37.459999 50.639999 4294967040
49.84 37.279999 50.579998 4294967040
49.84 37.09 50.57 4294967040
49.869999 36.75 50.91 4294967040
49.880001 36.560001 50.91 4294967040
49.889999 36.360001 50.919998 4294967040
49.869999 36.32 50.57 4294967040
49.869999 36.16 50.489998 4294967040
49.790001 38.09 51.360001 4294967040
49.77 38.02 51.07 4294967040
49.759998 37.919998 50.869999 4294967040
49.759998 37.82 50.68 4294967040
49.759998 37.639999 50.630001 4294967040
49.77 37.470001 50.579998 4294967040
49.77 37.27 50.57 4294967040
49.779999 37.060001 50.599998 4294967040
49.810001 36.75 50.880001 4294967040
49.82 36.540001 50.91 4294967040
49.82 36.369999 50.880001 4294967040
49.810001 36.299999 50.579998 4294967040
49.799999 36.18 50.419998 4294967040
50.130001 38.32 50.98 4294967040
50.130001 38.18 50.869999 4294967040
50.130001 38.029999 50.77 4294967040
50.130001 37.900002 50.619999 4294967040
50.150002 37.630001 50.799999 4294967040
50.169998 37.369999 50.93 4294967040
50.169998 37.189999 50.880001 4294967040
50.16 37.09 50.669998 4294967040
50.189999 36.82 50.860001 4294967040
50.200001 36.599998 50.919998 4294967040
50.209999 36.400002 50.93 4294967040
50.189999 36.349998 50.599998 4294967040
50.200001 36.18 50.549999 4294967040
50.400002 38.360001 50.950001 4294967040
50.41 38.16 50.93 4294967040
50.419998 37.98 50.91 4294967040
50.419998 37.810001 50.880001 4294967040
50.450001 37.439999 51.25 4294967040
50.470001 37.209999 51.34 4294967040
50.470001 37.02 51.329998 4294967040
50.48 36.82 51.329998 4294967040
50.48 36.66 51.25 4294967040
50.470001 36.610001 50.93 4294967040
50.48 36.439999 50.900002 4294967040
50.48 36.27 50.84 4294967040
50.470001 36.200001 50.560001 4294967040
50.52 38.349998 50.98 4294967040
50.529999 38.16 50.959999 4294967040
50.540001 37.919998 51.060001 4294967040
50.540001 37.810001 50.880001 4294967040
50.549999 37.560001 50.989998 4294967040
50.580002 37.23 51.299999 4294967040
50.59 37.029999 51.32 4294967040
50.59 36.849998 51.310001 4294967040
50.599998 36.66 51.290001 4294967040
50.580002 36.610001 50.959999 4294967040
50.59 36.439999 50.91 4294967040
50.59 36.240002 50.91 4294967040
50.57 36.200001 50.540001 4294967040
50.529999 38.32 50.950001 4294967040
50.540001 38.080002 51.02 4294967040
50.560001 37.830002 51.16 4294967040
50.549999 37.700001 51.029999 4294967040
50.560001 37.470001 51.099998 4294967040
50.59 37.18 51.34 4294967040
50.59 36.990002 51.310001 4294967040
50.599998 36.810001 51.259998 4294967040
50.599998 36.630001 51.23 4294967040
50.59 36.57 50.919998 4294967040
50.599998 36.380001 50.939999 4294967040
50.59 36.25 50.77 4294967040
50.580002 36.150002 50.57 4294967040
50.68 38.279999 50.959999 4294967040
50.709999 37.98 51.189999 4294967040
50.709999 37.810001 51.130001 4294967040
50.73 37.529999 51.32 4294967040
50.73 37.389999 51.209999 4294967040
50.740002 37.169998 51.259998 4294967040
50.75 37 51.209999 4294967040
50.759998 36.77 51.299999 4294967040
50.759998 36.59 51.25 4294967040
50.75 36.540001 50.91 4294967040
50.75 36.360001 50.900002 4294967040
50.75 36.240002 50.73 4294967040
50.740002 36.119999 50.549999 4294967040
50.970001 38.27 50.93 4294967040
51 37.919998 51.25 4294967040
51.009998 37.700001 51.310001 4294967040
51.02 37.509998 51.299999 4294967040
51.02 37.330002 51.290001 4294967040
51.029999 37.169998 51.200001 4294967040
51.040001 36.950001 51.290001 4294967040
51.049999 36.73 51.329998 4294967040
51.060001 36.549999 51.299999 4294967040
51.040001 36.529999 50.889999 4294967040
51.049999 36.349998 50.869999 4294967040
51.049999 36.220001 50.739998 4294967040
51.040001 36.110001 50.52 4294967040
51.450001 38.18 50.91 4294967040
51.470001 37.860001 51.18 4294967040
51.490002 37.619999 51.27 4294967040
51.5 37.419998 51.290001 4294967040
51.5 37.279999 51.16 4294967040
51.5 37.09 51.16 4294967040
51.52 36.84 51.310001 4294967040
51.529999 36.669998 51.239998 4294967040
51.540001 36.459999 51.299999 4294967040
51.52 36.439999 50.880001 4294967040
51.529999 36.240002 50.900002 4294967040
51.52 36.139999 50.669998 4294967040
51.52 36.009998 50.540001 4294967040
52.009998 38.259998 50.82 4294967040
52.029999 37.970001 51.029999 4294967040
52.07 37.57 51.5 4294967040
51.869999 38.110001 50.900002 4294967040
51.91 37.759998 51.259998 4294967040
51.919998 37.549999 51.279999 4294967040
51.959999 37.209999 51.630001 4294967040
51.970001 37.02 51.610001 4294967040
51.509998 36.119999 50.549999 4294967040
51.5 36.150002 50.849998 4294967040
51.48 36.400002 50.900002 4294967040
51.470001 36.57 51.049999 4294967040
51.450001 36.610001 51.329998 4294967040
51.439999 36.939999 51.32 4294967040
51.43 37.290001 51.310001 4294967040
51.41 37.619999 51.310001 4294967040
51.400002 38.25 51.029999 4294967040
51.189999 36.139999 50.540001 4294967040
51.18 36.200001 50.810001 4294967040
51.169998 36.439999 50.889999 4294967040
51.16 36.599998 51.060001 4294967040
51.139999 36.650002 51.34 4294967040
51.130001 37.029999 51.290001 4294967040
51.119999 37.41 51.239998 4294967040
51.099998 37.630001 51.329998 4294967040
51.09 38.110001 51.200001 4294967040
51.450001 36.110001 50.549999 4294967040
51.43 36.16 50.829998 4294967040
51.419998 36.41 50.900002 4294967040
51.41 36.580002 51.060001 4294967040
51.389999 36.630001 51.34 4294967040
51.380001 36.990002 51.310001 4294967040
51.369999 37.34 51.279999 4294967040
51.360001 37.650002 51.290001 4294967040
51.349998 38.18 51.110001 4294967040
51.630001 35.950001 50.48 4294967040
51.610001 36.130001 50.610001 4294967040
51.599998 36.200001 50.869999 4294967040
51.59 36.549999 50.849998 4294967040
51.57 36.43 51.290001 4294967040
51.560001 36.709999 51.329998 4294967040
51.549999 37.119999 51.25 4294967040
51.529999 37.419998 51.279999 4294967040
51.52 37.830002 51.189999 4294967040
51.32 36.150002 50.509998 4294967040
51.299999 36.139999 50.849998 4294967040
51.290001 36.439999 50.880001 4294967040
51.27 36.509998 51.139999 4294967040
51.259998 36.650002 51.32 4294967040
51.25 36.959999 51.329998 4294967040
51.23 37.349998 51.279999 4294967040
51.220001 37.700001 51.25 4294967040
51.209999 38.400002 50.900002 4294967040
50.419998 36.119999 50.529999 4294967040
50.41 36.25 50.720001 4294967040
50.389999 36.389999 50.900002 4294967040
50.380001 36.720001 50.900002 4294967040
50.369999 36.700001 51.23 4294967040
50.349998 36.900002 51.360001 4294967040
50.34 37.279999 51.310001 4294967040
50.32 37.950001 51 4294967040
50.310001 38.32 50.950001 4294967040
50.110001 36.16 50.529999 4294967040
50.099998 36.380001 50.619999 4294967040
50.080002 36.419998 50.900002 4294967040
50.07 36.790001 50.869999 4294967040
50.060001 37.34 50.639999 4294967040
50.049999 37.610001 50.700001 4294967040
50.029999 37.880001 50.759998 4294967040
50.02 37.959999 51.009998 4294967040
50.009998 38.27 51.029999 4294967040
50 37.330002 52.239998 4294967040
49.990002 37.310001 52.579998 4294967040
49.970001 37.290001 52.91 4294967040
49.959999 37.25 53.27 4294967040
50.889999 36.02 50.52 4294967040
50.880001 36.259998 50.599998 4294967040
50.869999 36.299999 50.869999 4294967040
50.860001 36.599998 50.900002 4294967040
50.84 36.560001 51.25 4294967040
50.830002 36.810001 51.329998 4294967040
50.82 37.25 51.23 4294967040
50.810001 37.52 51.299999 4294967040
50.799999 37.889999 51.25 4294967040
51.669998 36.099998 50.599998 4294967040
51.650002 36.169998 50.849998 4294967040
51.639999 36.48 50.869999 4294967040
51.619999 36.459999 51.209999 4294967040
51.610001 36.68 51.32 4294967040
51.599998 37.110001 51.220001 4294967040
51.59 37.369999 51.279999 4294967040
51.580002 37.830002 51.169998 4294967040
51.310001 35.959999 50.419998 4294967040
51.290001 36.18 50.52 4294967040
51.27 36.189999 50.84 4294967040
51.259998 36.48 50.869999 4294967040
51.240002 36.509998 51.16 4294967040
51.23 36.669998 51.329998 4294967040
51.209999 37.049999 51.290001 4294967040
51.200001 37.389999 51.279999 4294967040
51.189999 37.720001 51.27 4294967040
50.310001 36.279999 50.52 4294967040
50.290001 36.279999 50.829998 4294967040
50.279999 36.540001 50.91 4294967040
50.259998 37.009998 50.77 4294967040
50.240002 36.950001 51.16 4294967040
50.23 37.200001 51.220001 4294967040
50.220001 37.66 51.079998 4294967040
50.200001 38.169998 50.919998 4294967040
50.189999 38.470001 50.950001 4294967040
50.119999 37.330002 53.309998 4294967040
50.080002 36.200001 50.599998 4294967040
50.060001 36.400002 50.73 4294967040
50.049999 36.52 50.93 4294967040
50.029999 36.990002 50.790001 4294967040
50.02 37.41 50.720001 4294967040
50.009998 37.59 50.860001 4294967040
49.990002 37.810001 50.959999 4294967040
49.98 37.91 51.18 4294967040
49.959999 37.459999 51.93 4294967040
49.950001 37.349998 52.349998 4294967040
49.939999 37.389999 52.630001 4294967040
49.919998 37.389999 52.950001 4294967040
49.91 37.360001 53.290001 4294967040
50.91 36.209999 50.509998 4294967040
50.889999 36.23 50.82 4294967040
50.880001 36.490002 50.889999 4294967040
50.860001 36.580002 51.130001 4294967040
50.849998 36.689999 51.34 4294967040
50.84 37.09 51.259998 4294967040
50.830002 37.450001 51.23 4294967040
50.82 37.740002 51.27 4294967040
50.799999 38.18 51.169998 4294967040
51.52 35.970001 50.459999 4294967040
51.5 36.150002 50.599998 4294967040
51.48 36.18 50.889999 4294967040
51.470001 36.48 50.91 4294967040
51.450001 36.490002 51.220001 4294967040
51.439999 36.740002 51.310001 4294967040
51.43 37.139999 51.25 4294967040
51.419998 37.419998 51.290001 4294967040
51.41 37.810001 51.220001 4294967040
51.080002 36.130001 50.529999 4294967040
51.060001 36.200001 50.790001 4294967040
51.049999 36.439999 50.869999 4294967040
51.029999 36.59 51.049999 4294967040
51.009998 36.68 51.299999 4294967040
51 37.029999 51.279999 4294967040
50.990002 37.360001 51.27 4294967040
50.98 37.639999 51.310001 4294967040
50.970001 38.130001 51.16 4294967040
50.16 36.16 50.549999 4294967040
50.139999 36.389999 50.630001 4294967040
50.130001 36.470001 50.889999 4294967040
50.110001 36.790001 50.889999 4294967040
50.099998 37.439999 50.59 4294967040
50.09 37.669998 50.68 4294967040
50.080002 37.919998 50.75 4294967040
50.060001 38.049999 50.950001 4294967040
50.049999 38.279999 51.049999 4294967040
50.02 37.32 52.290001 4294967040
50 37.299999 52.630001 4294967040
49.990002 37.32 52.93 4294967040
49.970001 37.310001 53.239998 4294967040
50.040001 36.150002 50.549999 4294967040
50.029999 36.389999 50.639999 4294967040
50.009998 36.400002 50.939999 4294967040
50 36.799999 50.869999 4294967040
49.990002 37.330002 50.68 4294967040
49.98 37.470001 50.869999 4294967040
49.959999 37.52 51.139999 4294967040
49.950001 37.630001 51.34 4294967040
49.939999 38.299999 51.02 4294967040
49.91 37.349998 52.239998 4294967040
49.889999 37.400002 52.52 4294967040
49.880001 37.360001 52.869999 4294967040
49.860001 37.369999 53.18 4294967040
50.950001 36 50.470001 4294967040
50.939999 36.240002 50.560001 4294967040
50.919998 36.25 50.880001 4294967040
50.91 36.57 50.889999 4294967040
50.889999 36.580002 51.200001 4294967040
50.880001 36.740002 51.349998 4294967040
50.869999 37.119999 51.299999 4294967040
50.849998 37.419998 51.32 4294967040
50.84 37.75 51.32 4294967040
50.84 38.470001 50.959999 4294967040
51.43 35.98 50.549999 4294967040
51.419998 36.16 50.700001 4294967040
51.400002 36.279999 50.889999 4294967040
51.380001 36.560001 50.939999 4294967040
51.360001 36.52 51.310001 4294967040
51.349998 36.830002 51.329998 4294967040
51.34 37.240002 51.239998 4294967040
51.330002 37.57 51.239998 4294967040
51.32 37.970001 51.18 4294967040
50.689999 36.23 50.579998 4294967040
50.669998 36.259998 50.880001 4294967040
50.66 36.540001 50.919998 4294967040
50.639999 36.610001 51.18 4294967040
50.619999 36.810001 51.290001 4294967040
50.610001 37.099998 51.329998 4294967040
50.599998 37.5 51.259998 4294967040
50.59 37.950001 51.139999 4294967040
49.639999 36.200001 50.549999 4294967040
49.619999 36.369999 50.700001 4294967040
49.610001 36.450001 50.939999 4294967040
49.59 36.889999 50.82 4294967040
49.580002 37.369999 50.68 4294967040
49.560001 37.349998 51.02 4294967040
49.540001 37.330002 51.360001 4294967040
49.529999 37.57 51.450001 4294967040
49.52 38.049999 51.310001 4294967040
49.5 38.360001 51.329998 4294967040
49.400002 36.34 50.560001 4294967040
49.389999 36.43 50.799999 4294967040
49.369999 36.630001 50.919998 4294967040
49.360001 36.939999 50.93 4294967040
49.34 36.880001 51.299999 4294967040
49.330002 37.110001 51.41 4294967040
49.310001 37.5 51.34 4294967040
49.299999 37.860001 51.310001 4294967040
49.290001 38.16 51.349998 4294967040
49.91 36.279999 50.57 4294967040
49.889999 36.360001 50.82 4294967040
49.880001 36.57 50.919998 4294967040
49.869999 37.119999 50.700001 4294967040
49.860001 37.48 50.68 4294967040
49.849998 37.77 50.700001 4294967040
49.830002 38.009998 50.799999 4294967040
49.82 38.139999 51 4294967040
49.799999 38.369999 51.110001 4294967040
49.98 36.23 50.549999 4294967040
49.959999 36.380001 50.739998 4294967040
49.950001 36.5 50.939999 4294967040
49.939999 36.950001 50.82 4294967040
49.93 37.369999 50.720001 4294967040
49.91 37.57 50.849998 4294967040
49.900002 37.77 50.970001 4294967040
49.880001 37.959999 51.110001 4294967040
49.869999 38.369999 51.040001 4294967040
49.77 37.310001 53.32 4294967040
49.16 36.25 50.489998 4294967040
49.139999 36.43 50.639999 4294967040
49.130001 36.549999 50.84 4294967040
49.110001 36.759998 50.950001 4294967040
49.099998 36.939999 51.099998 4294967040
49.080002 36.919998 51.43 4294967040
49.07 37.389999 51.310001 4294967040
49.049999 37.869999 51.16 4294967040
49.040001 38.110001 51.259998 4294967040
49.02 38.290001 51.389999 4294967040
48.52 36.490002 50.59 4294967040
48.5 36.5 50.889999 4294967040
48.490002 36.759998 50.950001 4294967040
48.470001 36.950001 51.09 4294967040
48.459999 37.02 51.329998 4294967040
48.439999 37.259998 51.419998 4294967040
48.43 37.650002 51.380001 4294967040
48.419998 38.09 51.290001 4294967040
48.400002 38.310001 51.380001 4294967040
48.389999 38.59 51.419998 4294967040
48.389999 36.529999 50.560001 4294967040
48.380001 36.529999 50.880001 4294967040
48.360001 36.790001 50.950001 4294967040
48.349998 37.060001 51.009998 4294967040
48.330002 37.029999 51.369999 4294967040
48.32 37.299999 51.419998 4294967040
48.299999 37.720001 51.32 4294967040
48.290001 38.09 51.299999 4294967040
48.279999 38.360001 51.34 4294967040
48.259998 38.66 51.389999 4294967040
48.619999 36.34 50.560001 4294967040
48.610001 36.540001 50.689999 4294967040
48.59 36.59 50.950001 4294967040
48.580002 36.919998 50.959999 4294967040
48.560001 37.02 51.189999 4294967040
48.549999 37.040001 51.489998 4294967040
48.529999 37.48 51.369999 4294967040
48.52 37.970001 51.220001 4294967040
48.509998 38.220001 51.299999 4294967040
48.490002 38.419998 51.419998 4294967040
48.459999 36.34 50.540001 4294967040
48.450001 36.529999 50.669998 4294967040
48.43 36.560001 50.970001 4294967040
48.419998 36.880001 50.959999 4294967040
