# .PCD v0.7 - Point Cloud Data file format
VERSION 0.7
FIELDS x y z rgb
SIZE 4 4 4 4
TYPE F F F U
COUNT 1 1 1 1
WIDTH 1250
HEIGHT 1
VIEWPOINT 0 0 0 1 0 0 0
POINTS 1250
DATA ascii
69.150002 34.810001 50.689999 4294934528
69.129997 35.43 50.84 4294934528
69.139999 35.470001 50.549999 4294934528
69.129997 35.98 50.610001 4294934528
68.970001 33.970001 56.299999 4294934528
68.980003 33.919998 55.939999 4294934528
68.940002 35.23 56.239998 4294934528
68.949997 35.23 55.939999 4294934528
69.129997 34.150002 50.639999 4294934528
69.110001 34.740002 50.75 4294934528
69.089996 35.380001 50.91 4294934528
69.099998 35.419998 50.610001 4294934528
69.089996 35.860001 50.619999 4294934528
68.589996 34.23 56.23 4294934528
68.589996 34.459999 56.07 4294934528
68.599998 34.68 55.599998 4294934528
68.730003 34.299999 50.810001 4294934528
68.709999 34.860001 50.900002 4294934528
68.699997 35.380001 50.970001 4294934528
68.699997 35.630001 50.829998 4294934528
68.699997 35.75 50.599998 4294934528
68.690002 36.119999 50.560001 4294934528
68.269997 34.57 50.93 4294934528
68.260002 35.07 50.970001 4294934528
68.25 35.650002 51.079998 4294934528
68.25 35.759998 50.829998 4294934528
68.25 35.889999 50.610001 4294934528
68.279999 34.009998 50.669998 4294934528
68.25 34.82 50.939999 4294934528
68.239998 35.279999 50.970001 4294934528
68.230003 35.759998 51 4294934528
68.239998 35.759998 50.689999 4294934528
68.239998 36.07 50.599998 4294934528
68.470001 34.419998 50.849998 4294934528
68.459999 34.950001 50.93 4294934528
68.440002 35.5 51.009998 4294934528
68.440002 35.73 50.869999 4294934528
68.449997 35.82 50.610001 4294934528
68.449997 36.139999 50.52 4294934528
68.440002 34.59 50.889999 4294934528
68.43 35.009998 50.889999 4294934528
68.410004 35.619999 51.02 4294934528
68.419998 35.720001 50.779999 4294934528
68.419998 35.959999 50.619999 4294934528
68.419998 36.130001 50.419998 4294934528
68.150002 34.299999 50.810001 4294934528
68.129997 34.959999 50.970001 4294934528
68.120003 35.490002 51.049999 4294934528
68.120003 35.740002 50.91 4294934528
68.129997 35.740002 50.579998 4294934528
68.120003 36.150002 50.560001 4294934528
67.800003 34.82 50.950001 4294934528
67.779999 35.349998 51.02 4294934528
67.779999 35.73 50.98 4294934528
67.790001 35.75 50.669998 4294934528
67.779999 36.150002 50.650002 4294934528
67.809998 36.099998 50.689999 4294934528
67.910004 34.720001 51 4294934528
67.900002 35.16 51.009998 4294934528
67.889999 35.639999 51.029999 4294934528
67.910004 35.439999 50.540001 4294934528
67.900002 35.990002 50.66 4294934528
67.900002 36.200001 50.489998 4294934528
67.730003 36.189999 50.599998 4294934528
67.739998 35.970001 50.619999 4294934528
67.760002 35.77 50.700001 4294934528
67.779999 35.75 51 4294934528
67.790001 35.509998 51.009998 4294934528
67.800003 35.240002 50.970001 4294934528
67.809998 35 50.970001 4294934528
67.809998 34.709999 50.919998 4294934528
67.82 34.330002 50.720001 4294934528
68.18 36.099998 50.619999 4294934528
68.190002 35.849998 50.610001 4294934528
68.199997 35.810001 50.880001 4294934528
68.220001 35.689999 51.060001 4294934528
68.230003 35.41 51.02 4294934528
68.230003 35.080002 50.900002 4294934528
68.239998 34.860001 50.91 4294934528
68.25 34.57 50.860001 4294934528
68.25 34.18 50.650002 4294934528
68.529999 34.700001 55.459999 4294934528
68.550003 34.689999 55.75 4294934528
68.580002 34.419998 56.029999 4294934528
68.589996 34.330002 56.219997 4294934528
68.610001 34.259998 56.43 4294934528
68.190002 36.130001 50.599998 4294934528
68.199997 35.869999 50.579998 4294934528
68.220001 35.810001 50.829998 4294934528
68.230003 35.720001 51.040001 4294934528
68.239998 35.470001 51.029999 4294934528
68.25 35.130001 50.900002 4294934528
68.260002 34.880001 50.889999 4294934528
68.269997 34.669998 50.919998 4294934528
68.269997 34.23 50.669998 4294934528
68.550003 34.759998 55.48 4294934528
68.57 34.720001 55.739998 4294934528
68.610001 34.349998 56.18 4294934528
68.629997 34.240002 56.360001 4294934528
68.639999 34.130001 56.509998 4294934528
68.050003 36.189999 50.639999 4294934528
68.059998 35.900002 50.579998 4294934528
68.07 35.77 50.720001 4294934528
68.089996 35.73 50.989998 4294934528
68.099998 35.490002 51.009998 4294934528
68.099998 35.049999 50.73 4294934528
68.120003 34.900002 50.860001 4294934528
68.129997 34.66 50.880001 4294934528
68.129997 34.240002 50.639999 4294934528
68.449997 34.709999 55.700001 4294934528
68.480003 34.360001 55.849998 4294934528
68.519997 34.310001 56.389999 4294934528
68.269997 36.029999 50.610001 4294934528
68.290001 35.830002 50.66 4294934528
68.309998 35.810001 50.959999 4294934528
68.32 35.599998 51.009998 4294934528
68.32 35.189999 50.790001 4294934528
68.339996 35.07 50.959999 4294934528
68.349998 34.810001 50.939999 4294934528
68.349998 34.459999 50.790001 4294934528
68.360001 34.09 50.630001 4294934528
68.669998 34.709999 55.559998 4294934528
68.690002 34.68 55.829998 4294934528
68.699997 34.48 55.869999 4294934528
68.720001 34.439999 56.130001 4294934528
68.730003 34.200001 56.139999 4294934528
68.739998 34.040001 56.239998 4294934528
68.809998 36.099998 50.599998 4294934528
68.82 35.860001 50.599998 4294934528
68.839996 35.689999 50.689999 4294934528
68.849998 35.630001 50.939999 4294934528
68.860001 35.310001 50.84 4294934528
68.870003 35.119999 50.900002 4294934528
68.879997 34.790001 50.799999 4294934528
68.889999 34.59 50.869999 4294934528
68.900002 34.220001 50.700001 4294934528
69.160004 35.73 55.829998 4294934528
69.18 35.700001 56.09 4294934528
69.190002 35.470001 56.110001 4294934528
69.190002 35.119999 55.969997 4294934528
69.220001 35.18 56.360001 4294934528
69.230003 35.18 56.639999 4294934528
69.239998 34.779999 56.439999 4294934528
69.260002 34.790001 56.75 4294934528
69.269997 34.580002 56.790001 4294934528
69.290001 34.599998 57.110001 4294934528
69.290001 34.07 56.759998 4294934528
69.419998 35.799999 50.610001 4294934528
69.419998 35.290001 50.25 4294934528
69.43 34.990002 50.16 4294934528
69.440002 34.73 50.139999 4294934528
69.449997 34.52 50.18 4294934528
69.459999 34.400002 50.369999 4294934528
69.480003 34.310001 50.579998 4294934528
69.489998 34.09 50.619999 4294934528
69.489998 33.529999 50.200001 4294934528
69.739998 35.880001 56.41 4294934528
69.769997 35.959999 57.110001 4294934528
69.790001 35.869999 57.309998 4294934528
69.779999 35.009998 56.509998 4294934528
69.800003 35.049999 56.860001 4294934528
69.800003 34.740002 56.77 4294934528
69.800003 34.189999 56.380001 4294934528
69.82 34.32 56.849998 4294934528
69.839996 34.349998 57.18 4294934528
69.400002 35.98 50.619999 4294934528
69.410004 35.700001 50.579998 4294934528
69.400002 35.18 50.189999 4294934528
69.410004 34.950001 50.209999 4294934528
69.419998 34.669998 50.169998 4294934528
69.43 34.439999 50.169998 4294934528
69.449997 34.43 50.5 4294934528
69.459999 34.25 50.599998 4294934528
69.470001 34.009998 50.619999 4294934528
69.730003 35.830002 56.439999 4294934528
69.769997 35.869999 57.09 4294934528
69.779999 35.869999 57.399998 4294934528
69.769997 34.98 56.57 4294934528
69.790001 34.959999 56.84 4294934528
69.800003 34.790001 56.93 4294934528
69.800003 34.119999 56.389999 4294934528
69.82 34.470001 57.130001 4294934528
69.839996 34.360001 57.299999 4294934528
68.860001 36.080002 50.57 4294934528
68.879997 35.860001 50.610001 4294934528
68.889999 35.669998 50.669998 4294934528
68.900002 35.560001 50.860001 4294934528
68.919998 35.34 50.900002 4294934528
68.93 35.139999 50.959999 4294934528
68.93 34.849998 50.889999 4294934528
68.940002 34.549999 50.810001 4294934528
68.949997 34.18 50.66 4294934528
68.940002 33.599998 50.200001 4294934528
69.220001 35.720001 55.84 4294934528
69.239998 35.740002 56.18 4294934528
69.260002 35.619999 56.32 4294934528
69.25 35.07 55.91 4294934528
69.279999 35.110001 56.27 4294934528
69.300003 35.209999 56.689999 4294934528
69.309998 34.950001 56.669998 4294934528
69.32 34.700001 56.669998 4294934528
69.339996 34.68 56.939999 4294934528
69.360001 34.66 57.209999 4294934528
69.360001 34.259998 57.009998 4294934528
68.400002 36.080002 50.549999 4294934528
68.410004 35.860001 50.579998 4294934528
68.43 35.810001 50.849998 4294934528
68.449997 35.68 51.009998 4294934528
68.459999 35.380001 50.939999 4294934528
68.470001 35.139999 50.93 4294934528
68.470001 34.880001 50.91 4294934528
68.480003 34.57 50.82 4294934528
68.480003 34.209999 50.66 4294934528
68.82 34.75 55.489998 4294934528
68.839996 34.75 55.790001 4294934528
68.870003 34.900002 56.279999 4294934528
68.860001 34.259998 55.799999 4294934528
68.889999 34.25 56.099998 4294934528
68.900002 34.099998 56.189999 4294934528
68.910004 33.900002 56.25 4294934528
68.849998 36.02 50.59 4294934528
68.860001 35.75 50.560001 4294934528
68.879997 35.669998 50.790001 4294934528
68.900002 35.59 51 4294934528
68.900002 35.32 50.950001 4294934528
68.919998 35.049999 50.93 4294934528
68.919998 34.75 50.84 4294934528
68.93 34.48 50.810001 4294934528
68.940002 34.09 50.630001 4294934528
69.230003 35.84 55.77 4294934528
69.230003 35.549999 55.700001 4294934528
69.260002 35.68 56.169998 4294934528
69.279999 35.619999 56.389999 4294934528
69.260002 34.709999 55.549999 4294934528
69.300003 35.16 56.43 4294934528
69.330002 35.23 56.809998 4294934528
69.330002 34.810001 56.579998 4294934528
69.349998 34.709999 56.75 4294934528
69.370003 34.75 57.110001 4294934528
69.379997 34.48 57.07 4294934528
69.389999 34.27 57.110001 4294934528
69.730003 35.630001 50.459999 4294934528
69.730003 35.200001 50.200001 4294934528
69.739998 34.950001 50.209999 4294934528
69.760002 34.900002 50.459999 4294934528
69.779999 34.93 50.829998 4294934528
69.800003 34.84 51.040001 4294934528
69.809998 34.610001 51.049999 4294934528
69.809998 34.189999 50.829998 4294934528
69.860001 34.93 52.130001 4294934528
69.879997 34.98 52.52 4294934528
69.900002 34.98 52.84 4294934528
69.919998 34.970001 53.139999 4294934528
69.940002 35.060001 53.579998 4294934528
70.010002 35.889999 55.279999 4294934528
70.040001 35.57 55.5 4294934528
70.040001 35.060001 55.139999 4294934528
70.099998 35.689999 56.540001 4294934528
70.120003 35.73 56.880001 4294934528
70.129997 35.700001 57.149998 4294934528
70.139999 35.259998 56.91 4294934528
70.150002 34.98 56.860001 4294934528
70.160004 34.709999 56.82 4294934528
70.150002 34.139999 56.399998 4294934528
70.169998 34.119999 56.68 4294934528
70.199997 34.310001 57.200001 4294934528
69.940002 35.830002 50.599998 4294934528
69.940002 35.450001 50.400002 4294934528
69.949997 35.299999 50.52 4294934528
69.970001 35.299999 50.860001 4294934528
69.980003 35.09 50.91 4294934528
69.989998 34.84 50.900002 4294934528
70 34.610001 50.919998 4294934528
70.010002 34.240002 50.77 4294934528
70.010002 33.950001 50.700001 4294934528
70.239998 35.77 55.91 4294934528
70.260002 35.830002 56.290001 4294934528
70.279999 35.849998 56.610001 4294934528
70.25 34.459999 55.16 4294934528
70.300003 35.560001 56.860001 4294934528
70.309998 35.369999 56.91 4294934528
70.32 35.040001 56.790001 4294934528
70.330002 34.950001 56.989998 4294934528
70.339996 34.75 57.029999 4294934528
70.360001 34.689999 57.25 4294934528
70.360001 34.34 57.119999 4294934528
70.379997 34.209999 57.259998 4294934528
69.230003 35.830002 50.610001 4294934528
69.230003 35.48 50.459999 4294934528
69.260002 35.509998 50.829998 4294934528
69.260002 35.18 50.700001 4294934528
69.25 34.580002 50.239998 4294934528
69.269997 34.470001 50.43 4294934528
69.279999 34.349998 50.599998 4294934528
69.290001 34.130001 50.619999 4294934528
69.279999 33.549999 50.169998 4294934528
69.610001 35.939999 56.450001 4294934528
69.639999 35.959999 56.779999 4294934528
69.650002 35.869999 56.969997 4294934528
69.669998 35.869999 57.259998 4294934528
69.639999 34.880001 56.309998 4294934528
69.660004 34.84 56.57 4294934528
69.669998 34.68 56.66 4294934528
69.690002 34.669998 56.950001 4294934528
69.709999 34.52 57.079998 4294934528
69.720001 34.369999 57.189999 4294934528
68.629997 36.060001 50.59 4294934528
68.639999 35.82 50.59 4294934528
68.660004 35.759998 50.84 4294934528
68.669998 35.59 50.939999 4294934528
68.68 35.330002 50.91 4294934528
68.690002 35.049999 50.880001 4294934528
68.690002 34.73 50.779999 4294934528
68.699997 34.490002 50.77 4294934528
68.709999 34.150002 50.639999 4294934528
69.050003 35.330002 55.689999 4294934528
69.07 35.220001 55.860001 4294934528
69.089996 35.290001 56.239998 4294934528
69.089996 34.91 56.059998 4294934528
69.110001 34.34 55.950001 4294934528
69.120003 34.189999 56.07 4294934528
69.129997 33.869999 55.98 4294934528
69.150002 33.82 56.219997 4294934528
69.160004 33.599998 56.25 4294934528
69.010002 36 50.57 4294934528
69.019997 35.779999 50.59 4294934528
69.029999 35.610001 50.68 4294934528
69.050003 35.509998 50.889999 4294934528
69.059998 35.299999 50.919998 4294934528
69.07 35.07 50.950001 4294934528
69.080002 34.73 50.82 4294934528
69.080002 34.360001 50.66 4294934528
69.089996 34.099998 50.639999 4294934528
69.400002 35.790001 55.700001 4294934528
69.419998 35.650002 55.82 4294934528
69.449997 34.860001 55.739998 4294934528
69.480003 35.080002 56.32 4294934528
69.5 35.060001 56.59 4294934528
69.519997 34.91 56.700001 4294934528
69.529999 34.68 56.719997 4294934528
69.550003 34.720001 57.07 4294934528
69.559998 34.450001 57.029999 4294934528
69.580002 34.360001 57.219997 4294934528
70.07 35.720001 50.59 4294934528
70.080002 35.380001 50.459999 4294934528
70.099998 35.470001 50.93 4294934528
70.110001 35.23 50.91 4294934528
70.120003 34.880001 50.77 4294934528
70.120003 34.509998 50.610001 4294934528
70.139999 34.389999 50.77 4294934528
70.150002 34.259998 50.93 4294934528
70.360001 35.16 54.66 4294934528
70.419998 35.869999 56.18 4294934528
70.419998 35.27 55.709999 4294934528
70.449997 35.490002 56.299999 4294934528
70.449997 35.060001 56.049999 4294934528
70.480003 35.279999 56.639999 4294934528
70.489998 34.990002 56.579998 4294934528
70.5 34.900002 56.77 4294934528
70.519997 34.790001 56.93 4294934528
70.529999 34.650002 57.040001 4294934528
70.540001 34.360001 56.989998 4294934528
70.559998 34.310001 57.209999 4294934528
70.57 34.209999 57.389999 4294934528
70.519997 35.849998 50.59 4294934528
70.519997 35.59 50.549999 4294934528
70.540001 35.5 50.759998 4294934528
70.550003 35.400002 50.950001 4294934528
70.550003 34.950001 50.669998 4294934528
70.57 34.869999 50.889999 4294934528
70.580002 34.650002 50.919998 4294934528
70.589996 34.330002 50.84 4294934528
70.599998 34.09 50.84 4294934528
70.82 35.669998 55.739998 4294934528
70.830002 35.560001 55.889999 4294934528
70.849998 35.459999 56.07 4294934528
70.849998 35.220001 56.079998 4294934528
70.860001 34.98 56.079998 4294934528
70.870003 34.73 56.059998 4294934528
70.879997 34.549999 56.139999 4294934528
70.93 34.48 56.939999 4294934528
70.940002 34.369999 57.110001 4294934528
70.089996 35.790001 50.610001 4294934528
70.089996 35.369999 50.380001 4294934528
70.110001 35.360001 50.700001 4294934528
70.129997 35.25 50.889999 4294934528
70.139999 35.049999 50.939999 4294934528
70.129997 34.59 50.639999 4294934528
70.150002 34.459999 50.810001 4294934528
70.160004 34.259998 50.860001 4294934528
70.150002 33.709999 50.459999 4294934528
70.360001 35.23 54.68 4294934528
70.43 35.849998 56.110001 4294934528
70.43 35.450001 55.889999 4294934528
70.449997 35.580002 56.349998 4294934528
70.440002 35.029999 55.959999 4294934528
70.480003 35.349998 56.66 4294934528
70.489998 35.110001 56.669998 4294934528
70.489998 34.849998 56.639999 4294934528
70.510002 34.810001 56.889999 4294934528
70.519997 34.689999 57.040001 4294934528
70.529999 34.490002 57.079998 4294934528
70.540001 34.279999 57.130001 4294934528
70.559998 34.209999 57.329998 4294934528
69.589996 35.810001 50.599998 4294934528
69.589996 35.360001 50.32 4294934528
69.589996 35.02 50.189999 4294934528
69.599998 34.799999 50.209999 4294934528
69.610001 34.580002 50.25 4294934528
69.620003 34.400002 50.34 4294934528
69.650002 34.41 50.68 4294934528
69.660004 34.16 50.689999 4294934528
69.650002 33.68 50.389999 4294934528
69.830002 35.169998 53.619999 4294934528
69.839996 35.09 53.84 4294934528
69.980003 35.650002 56.099998 4294934528
70.010002 35.830002 56.630001 4294934528
70.029999 35.73 56.809998 4294934528
70.050003 35.689999 57.059998 4294934528
70.040001 35.139999 56.68 4294934528
70.059998 35.07 56.880001 4294934528
70.07 34.959999 57.029999 4294934528
70.050003 34.130001 56.309998 4294934528
70.080002 34.290001 56.799999 4294934528
69.839996 35.880001 50.59 4294934528
69.839996 35.48 50.380001 4294934528
69.839996 35.169998 50.279999 4294934528
69.860001 34.990002 50.380001 4294934528
69.879997 34.950001 50.68 4294934528
69.889999 34.790001 50.790001 4294934528
69.910004 34.639999 50.91 4294934528
69.919998 34.389999 50.900002 4294934528
69.919998 33.959999 50.66 4294934528
70.209999 35.639999 55.709999 4294934528
70.239998 35.779999 56.200001 4294934528
70.260002 35.869999 56.619999 4294934528
70.209999 34.439999 55.110001 4294934528
70.290001 35.549999 56.809998 4294934528
70.300003 35.389999 56.91 4294934528
70.309998 35.07 56.799999 4294934528
70.32 34.98 57 4294934528
70.330002 34.73 56.98 4294934528
70.349998 34.689999 57.239998 4294934528
70.360001 34.369999 57.139999 4294934528
70.370003 34.209999 57.23 4294934528
70.57 35.73 50.57 4294934528
70.589996 35.540001 50.650002 4294934528
70.610001 35.52 50.959999 4294934528
70.599998 35.029999 50.610001 4294934528
70.620003 34.970001 50.860001 4294934528
70.629997 34.68 50.810001 4294934528
70.639999 34.459999 50.849998 4294934528
70.660004 34.25 50.889999 4294934528
70.650002 33.709999 50.5 4294934528
70.919998 35.549999 55.739998 4294934528
70.940002 35.5 55.989998 4294934528
70.949997 35.380001 56.139999 4294934528
70.959999 35.09 56.09 4294934528
70.970001 34.77 55.98 4294934528
70.980003 34.73 56.219997 4294934528
70.989998 34.43 56.16 4294934528
70.879997 35.650002 50.52 4294934528
70.900002 35.509998 50.66 4294934528
70.910004 35.48 50.939999 4294934528
70.919998 35.240002 50.939999 4294934528
70.93 34.950001 50.880001 4294934528
70.940002 34.700001 50.869999 4294934528
70.949997 34.450001 50.860001 4294934528
70.959999 34.220001 50.889999 4294934528
70.959999 33.689999 50.52 4294934528
71.239998 34.970001 55.959999 4294934528
71.260002 34.830002 56.079998 4294934528
70.610001 35.810001 50.579998 4294934528
70.610001 35.560001 50.57 4294934528
70.629997 35.5 50.82 4294934528
70.650002 35.389999 51.009998 4294934528
70.650002 35.040001 50.869999 4294934528
70.660004 34.82 50.900002 4294934528
70.669998 34.580002 50.889999 4294934528
70.68 34.34 50.900002 4294934528
70.68 34.060001 50.849998 4294934528
70.970001 35.459999 56.130001 4294934528
70.970001 35.119999 55.989998 4294934528
70.980003 34.939999 56.07 4294934528
70.980003 34.59 55.939999 4294934528
71 34.619999 56.279999 4294934528
71.010002 34.369999 56.27 4294934528
70.370003 35.77 50.599998 4294934528
70.379997 35.59 50.669998 4294934528
70.400002 35.52 50.919998 4294934528
70.410004 35.310001 50.959999 4294934528
70.419998 35.040001 50.93 4294934528
70.419998 34.720001 50.829998 4294934528
70.43 34.490002 50.84 4294934528
70.440002 34.23 50.829998 4294934528
70.43 33.810001 50.59 4294934528
70.720001 35.650002 55.849998 4294934528
70.730003 35.509998 55.989998 4294934528
70.739998 35.16 55.84 4294934528
70.730003 34.73 55.599998 4294934528
70.760002 34.759998 55.939999 4294934528
70.760002 34.48 55.880001 4294934528
70.779999 34.5 56.209999 4294934528
70.809998 34.650002 56.709999 4294934528
70.830002 34.57 56.919998 4294934528
70.839996 34.490002 57.099998 4294934528
70.860001 34.400002 57.290001 4294934528
70.870003 34.310001 57.48 4294934528
70.82 35.639999 50.540001 4294934528
70.839996 35.450001 50.610001 4294934528
70.860001 35.5 51 4294934528
70.870003 35.220001 50.950001 4294934528
70.860001 34.779999 50.689999 4294934528
70.870003 34.470001 50.610001 4294934528
70.889999 34.419998 50.869999 4294934528
70.900002 34.200001 50.91 4294934528
70.889999 33.529999 50.349998 4294934528
71.18 35.110001 55.880001 4294934528
71.199997 34.939999 55.98 4294934528
71.209999 34.869999 56.200001 4294934528
71.239998 35.689999 50.5 4294934528
71.25 35.43 50.48 4294934528
71.279999 35.509998 50.93 4294934528
71.290001 35.279999 50.950001 4294934528
71.300003 35.049999 50.970001 4294934528
71.290001 34.5 50.549999 4294934528
71.32 34.740002 51.209999 4294934528
71.330002 34.580002 51.310001 4294934528
71.349998 34.41 51.41 4294934528
71.360001 34.119999 51.360001 4294934528
71.370003 35.68 50.489998 4294934528
71.379997 35.389999 50.419998 4294934528
71.400002 35.43 50.799999 4294934528
71.419998 35.310001 50.970001 4294934528
71.43 35.25 51.209999 4294934528
71.440002 35.040001 51.259998 4294934528
71.459999 34.900002 51.41 4294934528
71.470001 34.709999 51.489998 4294934528
71.480003 34.509998 51.540001 4294934528
71.489998 34.18 51.41 4294934528
71.169998 35.740002 50.529999 4294934528
71.18 35.490002 50.52 4294934528
71.199997 35.509998 50.880001 4294934528
71.209999 35.330002 50.970001 4294934528
71.220001 35.060001 50.939999 4294934528
71.220001 34.720001 50.810001 4294934528
71.230003 34.529999 50.869999 4294934528
71.25 34.490002 51.150002 4294934528
71.269997 34.41 51.360001 4294934528
71.269997 34.09 51.27 4294934528
71.129997 35.580002 50.529999 4294934528
71.139999 35.529999 50.779999 4294934528
71.150002 35.34 50.860001 4294934528
71.169998 35.169998 50.950001 4294934528
71.169998 34.849998 50.860001 4294934528
71.18 34.59 50.849998 4294934528
71.190002 34.470001 51.029999 4294934528
71.209999 34.389999 51.239998 4294934528
71.220001 34.139999 51.23 4294934528
71.260002 35.52 50.509998 4294934528
71.279999 35.470001 50.779999 4294934528
71.300003 35.41 51.02 4294934528
71.300003 35.139999 50.989998 4294934528
71.300003 34.75 50.799999 4294934528
71.330002 34.849998 51.279999 4294934528
71.339996 34.540001 51.18 4294934528
71.349998 34.459999 51.400002 4294934528
71.360001 34.23 51.419998 4294934528
71.480003 35.700001 50.52 4294934528
71.480003 35.34 50.369999 4294934528
71.510002 35.380001 50.759998 4294934528
71.529999 35.349998 51.060001 4294934528
71.540001 35.16 51.130001 4294934528
71.559998 35.130001 51.389999 4294934528
71.57 34.91 51.450001 4294934528
71.580002 34.709999 51.5 4294934528
71.589996 34.52 51.579998 4294934528
71.589996 34.139999 51.400002 4294934528
71.580002 35.52 50.470001 4294934528
71.589996 35.310001 50.509998 4294934528
71.620003 35.349998 50.900002 4294934528
71.639999 35.32 51.189999 4294934528
71.660004 35.220001 51.400002 4294934528
71.669998 35 51.41 4294934528
71.68 34.810001 51.48 4294934528
71.690002 34.630001 51.57 4294934528
71.699997 34.32 51.48 4294934528
71.699997 33.91 51.279999 4294934528
71.57 35.700001 50.529999 4294934528
71.580002 35.380001 50.419998 4294934528
71.599998 35.330002 50.68 4294934528
71.620003 35.34 51.029999 4294934528
71.639999 35.23 51.209999 4294934528
71.650002 35.029999 51.279999 4294934528
71.669998 34.919998 51.450001 4294934528
71.68 34.740002 51.529999 4294934528
71.690002 34.59 51.66 4294934528
71.690002 34.18 51.43 4294934528
71.699997 33.810001 51.279999 4294934528
71.550003 35.700001 50.540001 4294934528
71.550003 35.369999 50.41 4294934528
71.580002 35.400002 50.790001 4294934528
71.599998 35.360001 51.060001 4294934528
71.610001 35.16 51.110001 4294934528
71.629997 35.09 51.360001 4294934528
71.639999 34.869999 51.389999 4294934528
71.650002 34.740002 51.529999 4294934528
71.660004 34.549999 51.599998 4294934528
71.669998 34.18 51.450001 4294934528
71.669998 33.82 51.279999 4294934528
71.800003 35.560001 50.509998 4294934528
71.800003 35.220001 50.380001 4294934528
71.82 35.150002 50.610001 4294934528
71.860001 35.439999 51.34 4294934528
71.870003 35.279999 51.459999 4294934528
71.889999 35.16 51.630001 4294934528
71.900002 34.98 51.709999 4294934528
71.910004 34.759998 51.73 4294934528
71.910004 34.400002 51.59 4294934528
71.910004 33.93 51.290001 4294934528
72.150002 34.549999 55.259998 4294934528
71.980003 35.560001 50.48 4294934528
71.989998 35.25 50.389999 4294934528
71.989998 34.959999 50.32 4294934528
72.040001 35.439999 51.290001 4294934528
72.059998 35.330002 51.48 4294934528
72.07 35.16 51.59 4294934528
72.080002 35 51.700001 4294934528
72.089996 34.759998 51.700001 4294934528
72.089996 34.41 51.560001 4294934528
72.099998 34.029999 51.389999 4294934528
72.260002 35.200001 54.509998 4294934528
72.330002 34.400002 55.040001 4294934528
71.879997 35.610001 50.459999 4294934528
71.889999 35.369999 50.470001 4294934528
71.900002 35.099998 50.419998 4294934528
71.949997 35.48 51.27 4294934528
71.959999 35.369999 51.439999 4294934528
71.980003 35.240002 51.599998 4294934528
71.989998 35.07 51.709999 4294934528
72 34.84 51.73 4294934528
72 34.490002 51.579998 4294934528
72 34.080002 51.360001 4294934528
72.010002 33.75 51.25 4294934528
72.18 35.119999 54.329998 4294934528
72.25 34.41 54.959999 4294934528
72.300003 33.700001 55.279999 4294934528
71.949997 35.580002 50.48 4294934528
71.959999 35.32 50.470001 4294934528
71.959999 35.060001 50.450001 4294934528
72.010002 35.459999 51.329998 4294934528
72.029999 35.34 51.489998 4294934528
72.040001 35.18 51.59 4294934528
72.059998 35.02 51.709999 4294934528
72.07 34.790001 51.709999 4294934528
72.07 34.419998 51.549999 4294934528
72.080002 34.049999 51.400002 4294934528
72.25 35.119999 54.369999 4294934528
72.330002 34.380001 54.969997 4294934528
72.349998 35.400002 50.470001 4294934528
72.349998 34.950001 50.18 4294934528
72.389999 35.310001 50.989998 4294934528
72.410004 35.330002 51.34 4294934528
72.43 35.119999 51.389999 4294934528
72.440002 34.970001 51.52 4294934528
72.459999 34.830002 51.650002 4294934528
72.459999 34.549999 51.610001 4294934528
72.470001 34.18 51.439999 4294934528
72.639999 35.380001 54.599998 4294934528
72.699997 33.990002 54.669998 4294934528
72.849998 35.549999 50.5 4294934528
72.849998 35.27 50.450001 4294934528
72.870003 35.23 50.720001 4294934528
72.879997 35.060001 50.829998 4294934528
73.110001 35.18 54.5 4294934528
73.129997 34.25 54.25 4294934528
73.160004 33.68 54.459999 4294934528
73.389999 34.799999 55.869999 4294934528
73.410004 34.34 55.889999 4294934528
73.169998 35.459999 54.200001 4294934528
73.190002 35.200001 54.48 4294934528
73.199997 34.43 54.110001 4294934528
73.279999 33.959999 55.07 4294934528
73.309998 34.299999 55.790001 4294934528
73.5 34.75 55.84 4294934528
73.360001 34.490002 56.059998 4294934528
73.370003 34.610001 55.82 4294934528
73.360001 34.93 55.899998 4294934528
73.339996 35.119999 56.139999 4294934528
73.410004 35.470001 54.380001 4294934528
73.150002 33.66 55.41 4294934528
73.150002 34.080002 55.149998 4294934528
73.110001 34.490002 55.77 4294934528
73.18 34.360001 54.02 4294934528
73.18 34.540001 54.09 4294934528
73.160004 34.73 54.27 4294934528
73.150002 35.029999 54.259998 4294934528
73.160004 35.169998 54.119999 4294934528
73.150002 35.32 54.119999 4294934528
73.010002 33.32 54.579998 4294934528
73.010002 33.48 54.610001 4294934528
72.949997 34.130001 55.619999 4294934528
73.010002 34.200001 54.169998 4294934528
73.010002 34.310001 53.93 4294934528
72.959999 35.349998 54.48 4294934528
73.080002 33.540001 55.099998 4294934528
73.089996 33.630001 54.719997 4294934528
73.110001 33.720001 54.309998 4294934528
73.07 34.009998 55.09 4294934528
73.029999 34.439999 55.77 4294934528
73.099998 34.32 54.09 4294934528
73.080002 35.110001 54.09 4294934528
73.080002 35.259998 54.029999 4294934528
73.050003 35.509998 54.630001 4294934528
73.050003 33.509998 54.759998 4294934528
73.050003 33.650002 54.669998 4294934528
72.989998 34.150002 55.75 4294934528
73.050003 34.060001 54.279999 4294934528
73.050003 34.209999 54.219997 4294934528
73.07 34.299999 53.809998 4294934528
73.029999 34.709999 54.419998 4294934528
73.019997 35.310001 54.169998 4294934528
72.760002 33.650002 54.82 4294934528
72.739998 34.709999 54.599998 4294934528
72.720001 35.049999 54.689999 4294934528
72.879997 34.950001 50.889999 4294934528
72.879997 35.119999 50.889999 4294934528
72.879997 35.259998 50.77 4294934528
72.879997 35.389999 50.509998 4294934528
72.879997 35.560001 50.52 4294934528
72.360001 33.610001 55.099998 4294934528
72.360001 33.73 54.860001 4294934528
72.360001 33.880001 54.82 4294934528
72.559998 33.23 50.029999 4294934528
72.360001 34.169998 54.68 4294934528
72.540001 33.459999 50.41 4294934528
72.339996 34.360001 54.91 4294934528
72.529999 33.650002 50.549999 4294934528
72.339996 34.529999 54.959999 4294934528
72.510002 33.869999 50.84 4294934528
72.339996 34.650002 54.759998 4294934528
72.480003 34.119999 51.400002 4294934528
72.470001 34.290001 51.48 4294934528
72.470001 34.459999 51.529999 4294934528
72.349998 35.02 54.16 4294934528
72.459999 34.639999 51.630001 4294934528
72.449997 34.810001 51.639999 4294934528
72.449997 34.959999 51.599998 4294934528
72.309998 35.610001 54.889999 4294934528
72.459999 35.099998 51.380001 4294934528
72.449997 35.240002 51.27 4294934528
72.459999 35.349998 50.950001 4294934528
72.480003 35.459999 50.5 4294934528
72.470001 35.610001 50.470001 4294934528
72.160004 33.650002 55.110001 4294934528
72.139999 33.84 55.290001 4294934528
72.349998 33.27 50.049999 4294934528
72.160004 34.209999 54.719997 4294934528
72.330002 33.52 50.549999 4294934528
72.32 33.700001 50.639999 4294934528
72.279999 33.990002 51.369999 4294934528
72.139999 34.689999 54.790001 4294934528
72.279999 34.16 51.450001 4294934528
72.269997 34.330002 51.489998 4294934528
72.150002 34.919998 54.27 4294934528
72.269997 34.490002 51.459999 4294934528
72.150002 35.09 54.360001 4294934528
72.260002 34.68 51.650002 4294934528
72.25 34.849998 51.689999 4294934528
72.25 35 51.599998 4294934528
72.25 35.16 51.549999 4294934528
72.25 35.299999 51.419998 4294934528
72.260002 35.400002 51 4294934528
72.279999 35.490002 50.450001 4294934528
72.269997 35.650002 50.489998 4294934528
72.190002 33.639999 55.369999 4294934528
72.209999 33.689999 54.739998 4294934528
72.410004 33.220001 50.029999 4294934528
72.389999 33.419998 50.279999 4294934528
72.18 34.380001 55.110001 4294934528
72.379997 33.630001 50.540001 4294934528
72.18 34.52 55.07 4294934528
72.349998 33.889999 51.150002 4294934528
72.18 34.650002 54.880001 4294934528
72.330002 34.110001 51.450001 4294934528
72.330002 34.27 51.439999 4294934528
72.32 34.450001 51.5 4294934528
72.309998 34.630001 51.68 4294934528
72.300003 34.799999 51.709999 4294934528
72.300003 34.950001 51.630001 4294934528
72.300003 35.09 51.48 4294934528
72.309998 35.220001 51.25 4294934528
72.309998 35.369999 51.139999 4294934528
72.330002 35.439999 50.5 4294934528
72.330002 35.610001 50.509998 4294934528
72.129997 33.650002 55.07 4294934528
72.120003 33.84 55.309998 4294934528
72.339996 33.290001 50.119999 4294934528
72.129997 34.209999 54.759998 4294934528
72.32 33.529999 50.59 4294934528
72.300003 33.720001 50.739998 4294934528
72.269997 33.990002 51.41 4294934528
72.260002 34.169998 51.48 4294934528
72.25 34.349998 51.57 4294934528
72.139999 34.900002 54.130001 4294934528
72.260002 34.490002 51.439999 4294934528
72.120003 35.099998 54.360001 4294934528
72.239998 34.68 51.66 4294934528
72.230003 34.849998 51.700001 4294934528
72.239998 35 51.599998 4294934528
72.230003 35.150002 51.52 4294934528
72.230003 35.299999 51.41 4294934528
72.25 35.400002 50.959999 4294934528
72.269997 35.490002 50.450001 4294934528
72.029999 33.369999 50.200001 4294934528
72 33.610001 50.630001 4294934528
71.970001 33.889999 51.360001 4294934528
71.970001 34.040001 51.279999 4294934528
71.970001 34.18 51.150002 4294934528
71.949997 34.400002 51.509998 4294934528
71.940002 34.580002 51.599998 4294934528
71.93 34.759998 51.739998 4294934528
71.93 34.919998 51.700001 4294934528
71.93 35.07 51.599998 4294934528
71.919998 35.23 51.560001 4294934528
71.93 35.360001 51.41 4294934528
71.93 35.509998 51.239998 4294934528
71.959999 35.549999 50.450001 4294934528
71.580002 33.349998 50.07 4294934528
71.550003 33.639999 50.829998 4294934528
71.529999 33.869999 51.18 4294934528
71.529999 34.040001 51.23 4294934528
71.510002 34.240002 51.459999 4294934528
71.510002 34.41 51.540001 4294934528
71.5 34.580002 51.560001 4294934528
71.5 34.73 51.509998 4294934528
71.5 34.880001 51.43 4294934528
71.510002 34.959999 50.869999 4294934528
71.489998 35.189999 51.310001 4294934528
71.489998 35.330002 51.119999 4294934528
71.5 35.459999 50.869999 4294934528
71.510002 35.560001 50.48 4294934528
71.5 35.740002 50.540001 4294934528
71.550003 33.369999 50.07 4294934528
71.519997 33.669998 50.869999 4294934528
71.5 33.889999 51.189999 4294934528
71.489998 34.080002 51.329998 4294934528
71.480003 34.259998 51.489998 4294934528
71.470001 34.43 51.560001 4294934528
71.470001 34.610001 51.650002 4294934528
71.470001 34.759998 51.540001 4294934528
71.470001 34.900002 51.389999 4294934528
71.480003 35 50.939999 4294934528
71.459999 35.220001 51.299999 4294934528
71.470001 35.34 51.049999 4294934528
71.470001 35.470001 50.860001 4294934528
71.480003 35.59 50.5 4294934528
71.470001 35.75 50.549999 4294934528
71.739998 33.240002 50.049999 4294934528
71.730003 33.43 50.18 4294934528
71.68 33.759998 51.150002 4294934528
71.669998 33.950001 51.310001 4294934528
71.669998 34.110001 51.25 4294934528
71.660004 34.290001 51.380001 4294934528
71.669998 34.380001 50.939999 4294934528
71.639999 34.639999 51.610001 4294934528
71.639999 34.810001 51.66 4294934528
71.639999 34.959999 51.529999 4294934528
71.639999 35.099998 51.400002 4294934528
71.629997 35.279999 51.48 4294934528
71.629997 35.419998 51.329998 4294934528
71.660004 35.459999 50.489998 4294934528
71.660004 35.630001 50.5 4294934528
71.919998 33.279999 50.049999 4294934528
71.900002 33.5 50.400002 4294934528
71.860001 33.799999 51.23 4294934528
71.849998 33.959999 51.200001 4294934528
71.860001 34.09 51.009998 4294934528
71.830002 34.330002 51.5 4294934528
71.82 34.52 51.650002 4294934528
71.809998 34.700001 51.73 4294934528
71.809998 34.860001 51.739998 4294934528
71.800003 35.009998 51.720001 4294934528
71.800003 35.169998 51.639999 4294934528
71.800003 35.310001 51.560001 4294934528
71.800003 35.459999 51.43 4294934528
71.839996 35.5 50.5 4294934528
71.839996 35.66 50.5 4294934528
71.699997 33.41 50.189999 4294934528
71.650002 33.73 51.18 4294934528
71.639999 33.91 51.25 4294934528
71.639999 34.07 51.18 4294934528
71.629997 34.27 51.400002 4294934528
71.629997 34.419998 51.32 4294934528
71.610001 34.619999 51.630001 4294934528
71.610001 34.779999 51.59 4294934528
71.599998 34.939999 51.57 4294934528
71.620003 35.049999 51.209999 4294934528
71.599998 35.259998 51.48 4294934528
71.599998 35.400002 51.329998 4294934528
71.629997 35.439999 50.489998 4294934528
71.629997 35.599998 50.5 4294934528
70.989998 34.310001 56.239998 4294934528
70.980003 34.450001 56.209999 4294934528
71 34.540001 55.790001 4294934528
70.980003 34.73 56.040001 4294934528
71.18 33.939999 51.150002 4294934528
70.980003 34.889999 56.09 4294934528
71.18 34.110001 51.209999 4294934528
70.970001 35.060001 56.139999 4294934528
71.169998 34.299999 51.349998 4294934528
70.970001 35.209999 56.119999 4294934528
71.160004 34.470001 51.360001 4294934528
71.18 34.549999 50.810001 4294934528
71.18 34.700001 50.720001 4294934528
71.169998 34.880001 50.82 4294934528
71.160004 35.060001 50.93 4294934528
71.160004 35.209999 50.860001 4294934528
71.150002 35.389999 50.950001 4294934528
71.150002 35.540001 50.849998 4294934528
71.160004 35.66 50.509998 4294934528
70.760002 34.439999 57.219997 4294934528
70.769997 34.540001 56.880001 4294934528
70.790001 34.560001 56.099998 4294934528
70.790001 34.709999 56.07 4294934528
70.790001 34.860001 56.049999 4294934528
71 34 50.669998 4294934528
70.790001 34.990002 55.939999 4294934528
70.989998 34.220001 50.989998 4294934528
70.779999 35.189999 56.200001 4294934528
70.790001 35.279999 55.73 4294934528
70.980003 34.529999 50.84 4294934528
70.769997 35.5 56.200001 4294934528
70.769997 35.630001 56.130001 4294934528
70.980003 34.84 50.790001 4294934528
70.769997 35.759998 55.950001 4294934528
70.970001 35.02 50.860001 4294934528
70.970001 35.189999 50.959999 4294934528
70.959999 35.360001 50.950001 4294934528
70.959999 35.52 50.970001 4294934528
70.970001 35.630001 50.509998 4294934528
70.970001 35.790001 50.540001 4294934528
71 34.330002 56.23 4294934528
71.279999 33.310001 50.060001 4294934528
71 34.470001 56.139999 4294934528
71.010002 34.57 55.829998 4294934528
71.239998 33.720001 50.639999 4294934528
70.980003 34.82 56.439999 4294934528
71.220001 33.970001 51.16 4294934528
70.989998 34.919998 56.09 4294934528
70.989998 35.07 56.079998 4294934528
71.199997 34.330002 51.349998 4294934528
71.199997 34.5 51.369999 4294934528
71.220001 34.560001 50.669998 4294934528
71.220001 34.700001 50.529999 4294934528
71.199997 34.919998 50.950001 4294934528
71.199997 35.07 50.84 4294934528
71.199997 35.25 50.950001 4294934528
71.190002 35.419998 50.989998 4294934528
71.199997 35.540001 50.639999 4294934528
71.199997 35.68 50.489998 4294934528
71.550003 33.330002 50.049999 4294934528
71.510002 33.619999 50.739998 4294934528
71.489998 33.849998 51.16 4294934528
71.480003 34.040001 51.299999 4294934528
71.459999 34.23 51.489998 4294934528
71.230003 35.110001 56.079998 4294934528
71.459999 34.400002 51.549999 4294934528
71.449997 34.57 51.579998 4294934528
71.449997 34.720001 51.509998 4294934528
71.449997 34.880001 51.439999 4294934528
71.470001 34.950001 50.849998 4294934528
71.449997 35.18 51.290001 4294934528
71.449997 35.310001 51.079998 4294934528
71.459999 35.450001 50.939999 4294934528
71.480003 35.549999 50.48 4294934528
71.470001 35.720001 50.52 4294934528
71.019997 34.349998 56.239998 4294934528
71.32 33.32 50.049999 4294934528
71.019997 34.470001 56.02 4294934528
71.300003 33.529999 50.32 4294934528
71.029999 34.59 55.799999 4294934528
70.989998 34.84 56.469997 4294934528
71 34.959999 56.219997 4294934528
71.010002 35.07 55.950001 4294934528
71.230003 34.349998 51.349998 4294934528
71.230003 34.509998 51.329998 4294934528
71.239998 34.610001 50.900002 4294934528
71.25 34.740002 50.630001 4294934528
71.239998 34.93 50.880001 4294934528
71.239998 35.080002 50.759998 4294934528
71.230003 35.259998 50.880001 4294934528
71.220001 35.439999 50.989998 4294934528
71.239998 35.540001 50.52 4294934528
71.230003 35.709999 50.540001 4294934528
70.57 34.23 57.389999 4294934528
70.57 34.34 57.18 4294934528
70.559998 34.529999 57.360001 4294934528
70.57 34.639999 57.130001 4294934528
70.589996 34.709999 56.610001 4294934528
70.610001 34.790001 56.149998 4294934528
70.849998 33.91 50.639999 4294934528
70.589996 34.98 56.380001 4294934528
70.830002 34.119999 50.939999 4294934528
70.599998 35.09 56.09 4294934528
70.839996 34.23 50.630001 4294934528
70.610001 35.200001 55.869999 4294934528
70.82 34.450001 50.98 4294934528
70.610001 35.34 55.77 4294934528
70.589996 35.540001 56.059998 4294934528
70.830002 34.720001 50.630001 4294934528
70.589996 35.669998 55.880001 4294934528
70.809998 34.919998 50.860001 4294934528
70.589996 35.810001 55.809998 4294934528
70.82 35.07 50.709999 4294934528
70.800003 35.27 50.98 4294934528
70.790001 35.439999 51 4294934528
70.800003 35.560001 50.739998 4294934528
70.809998 35.700001 50.549999 4294934528
70.449997 34.200001 57.360001 4294934528
70.459999 34.32 57.16 4294934528
70.449997 34.459999 57.119999 4294934528
70.459999 34.580002 56.939999 4294934528
70.449997 34.740002 57 4294934528
70.449997 34.889999 56.939999 4294934528
70.459999 35.009998 56.719997 4294934528
70.470001 35.110001 56.419998 4294934528
70.470001 35.25 56.309998 4294934528
70.709999 34.41 50.889999 4294934528
70.449997 35.459999 56.689999 4294934528
70.699997 34.560001 50.84 4294934528
70.489998 35.450001 55.630001 4294934528
70.709999 34.689999 50.57 4294934528
70.480003 35.630001 55.790001 4294934528
70.709999 34.84 50.529999 4294934528
70.480003 35.779999 55.759998 4294934528
70.690002 35.060001 50.880001 4294934528
70.690002 35.23 50.889999 4294934528
70.68 35.41 51.009998 4294934528
70.669998 35.560001 50.959999 4294934528
70.690002 35.669998 50.599998 4294934528
70.68 35.84 50.57 4294934528
70.690002 34.34 57.219997 4294934528
70.669998 34.529999 57.43 4294934528
70.709999 34.549999 56.669998 4294934528
70.720001 34.650002 56.349998 4294934528
70.730003 34.759998 56.079998 4294934528
70.730003 34.889999 55.889999 4294934528
70.980003 34.09 50.91 4294934528
70.730003 35.040001 55.849998 4294934528
70.980003 34.25 50.829998 4294934528
70.709999 35.25 56.189999 4294934528
70.720001 35.360001 55.950001 4294934528
70.970001 34.59 50.889999 4294934528
70.699997 35.560001 56.27 4294934528
70.709999 35.66 55.939999 4294934528
70.959999 34.91 50.91 4294934528
70.949997 35.080002 50.970001 4294934528
70.949997 35.240002 50.900002 4294934528
70.940002 35.419998 50.989998 4294934528
70.949997 35.560001 50.790001 4294934528
70.959999 35.68 50.52 4294934528
70.919998 34.459999 56.329998 4294934528
70.940002 34.529999 55.82 4294934528
70.919998 34.720001 56.049999 4294934528
71.18 33.939999 51.18 4294934528
70.919998 34.880001 56.049999 4294934528
71.18 34.099998 51.169998 4294934528
70.910004 35.029999 56.099998 4294934528
70.910004 35.189999 56.119999 4294934528
71.160004 34.459999 51.380001 4294934528
71.190002 34.529999 50.829998 4294934528
70.889999 35.52 56.219997 4294934528
71.169998 34.720001 50.93 4294934528
71.18 34.849998 50.739998 4294934528
71.169998 35.049999 50.939999 4294934528
71.160004 35.200001 50.889999 4294934528
71.160004 35.369999 50.93 4294934528
71.160004 35.52 50.84 4294934528
71.169998 35.630001 50.5 4294934528
70.620003 34.150002 57.34 4294934528
70.620003 34.279999 57.279999 4294934528
70.610001 34.450001 57.369999 4294934528
70.620003 34.580002 57.200001 4294934528
70.650002 34.610001 56.469997 4294934528
70.669998 34.68 55.98 4294934528
70.68 34.810001 55.82 4294934528
70.93 34.02 50.889999 4294934528
70.660004 35 56.049999 4294934528
70.93 34.189999 50.880001 4294934528
70.660004 35.16 56.059998 4294934528
70.93 34.34 50.829998 4294934528
70.669998 35.27 55.799999 4294934528
70.93 34.48 50.650002 4294934528
70.660004 35.450001 55.899998 4294934528
70.650002 35.619999 56 4294934528
70.650002 35.75 55.869999 4294934528
70.900002 35.02 50.919998 4294934528
70.900002 35.169998 50.849998 4294934528
70.889999 35.349998 50.950001 4294934528
70.889999 35.509998 51 4294934528
70.910004 35.610001 50.509998 4294934528
70.900002 35.790001 50.57 4294934528
70.25 34.130001 56.91 4294934528
70.230003 34.34 57.219997 4294934528
70.230003 34.470001 57.07 4294934528
70.239998 34.57 56.799999 4294934528
70.220001 34.77 57.059998 4294934528
70.220001 34.91 57 4294934528
70.220001 35.040001 56.84 4294934528
70.220001 35.18 56.759998 4294934528
70.209999 35.360001 56.969997 4294934528
70.220001 35.470001 56.709999 4294934528
70.209999 35.630001 56.799999 4294934528
70.220001 35.75 56.509998 4294934528
70.209999 35.900002 56.529999 4294934528
70.459999 35.43 51.040001 4294934528
70.470001 35.57 50.860001 4294934528
70.480003 35.68 50.540001 4294934528
70.470001 35.849998 50.59 4294934528
70.010002 33.639999 56.040001 4294934528
70.010002 33.779999 55.98 4294934528
70.010002 33.91 55.799999 4294934528
69.970001 34.200001 56.630001 4294934528
69.949997 34.419998 57 4294934528
69.959999 34.5 56.559998 4294934528
69.949997 34.68 56.77 4294934528
69.949997 34.799999 56.559998 4294934528
69.940002 34.970001 56.700001 4294934528
69.919998 35.200001 57.149998 4294934528
69.919998 35.330002 57 4294934528
69.940002 35.419998 56.59 4294934528
69.910004 35.630001 57 4294934528
69.900002 35.799999 57.110001 4294934528
69.919998 35.900002 56.75 4294934528
70.169998 35.200001 50.970001 4294934528
70.169998 35.380001 51.040001 4294934528
70.169998 35.68 50.77 4294934528
70.169998 35.810001 50.59 4294934528
70.019997 33.639999 56.059998 4294934528
70.019997 33.77 55.950001 4294934528
70.019997 33.900002 55.82 4294934528
69.980003 34.18 56.529999 4294934528
69.959999 34.400002 56.889999 4294934528
69.980003 34.490002 56.540001 4294934528
69.959999 34.669998 56.739998 4294934528
69.970001 34.799999 56.579998 4294934528
69.949997 34.98 56.799999 4294934528
69.93 35.189999 57.110001 4294934528
69.940002 35.32 56.950001 4294934528
69.949997 35.43 56.66 4294934528
69.93 35.630001 57 4294934528
69.919998 35.799999 57.149998 4294934528
69.93 35.900002 56.779999 4294934528
70.199997 35.200001 50.950001 4294934528
70.199997 35.369999 50.989998 4294934528
70.199997 35.669998 50.759998 4294934528
70.199997 35.810001 50.610001 4294934528
70.150002 33.75 55.919998 4294934528
70.160004 33.880001 55.77 4294934528
70.080002 34.27 57.189999 4294934528
70.099998 34.349998 56.759998 4294934528
70.110001 34.450001 56.43 4294934528
70.099998 34.630001 56.529999 4294934528
70.110001 34.740002 56.299999 4294934528
70.07 35 56.939999 4294934528
70.07 35.139999 56.889999 4294934528
70.089996 35.220001 56.439999 4294934528
70.059998 35.450001 56.969997 4294934528
70.07 35.57 56.719997 4294934528
70.040001 35.779999 57.130001 4294934528
70.050003 35.889999 56.82 4294934528
70.349998 35.18 50.880001 4294934528
70.360001 35.310001 50.700001 4294934528
70.349998 35.639999 50.709999 4294934528
70.349998 35.779999 50.560001 4294934528
70.230003 33.849998 55.75 4294934528
70.150002 34.25 57.219997 4294934528
70.150002 34.389999 57.119999 4294934528
70.160004 34.48 56.75 4294934528
70.169998 34.599998 56.5 4294934528
70.150002 34.790001 56.759998 4294934528
70.139999 34.959999 56.899998 4294934528
70.129997 35.139999 57.059998 4294934528
70.129997 35.41 56.880001 4294934528
70.120003 35.580002 56.939999 4294934528
70.110001 35.759998 57.130001 4294934528
70.129997 35.82 56.559998 4294934528
70.43 35.599998 50.599998 4294934528
70.43 35.759998 50.560001 4294934528
69.93 33.560001 55.959999 4294934528
69.919998 33.720001 56 4294934528
69.940002 33.830002 55.700001 4294934528
69.889999 34.130001 56.559998 4294934528
69.849998 34.380001 57.099998 4294934528
69.839996 34.549999 57.209999 4294934528
69.860001 34.630001 56.84 4294934528
69.860001 34.759998 56.639999 4294934528
70.18 33.759998 50.540001 4294934528
69.870003 34.880001 56.52 4294934528
70.169998 33.93 50.599998 4294934528
69.839996 35.099998 56.889999 4294934528
69.830002 35.279999 57.049999 4294934528
69.870003 35.299999 56.189999 4294934528
69.830002 35.549999 56.849998 4294934528
69.830002 35.689999 56.799999 4294934528
69.82 35.860001 56.919998 4294934528
70.120003 35.599998 50.700001 4294934528
70.120003 35.75 50.59 4294934528
70.110001 35.91 50.619999 4294934528
69.599998 33.48 55.779999 4294934528
69.599998 33.639999 55.759998 4294934528
69.589996 33.779999 55.689999 4294934528
69.559998 34.02 56.219997 4294934528
69.519997 34.34 57.130001 4294934528
69.519997 34.459999 56.939999 4294934528
69.510002 34.619999 57.02 4294934528
69.5 34.799999 57.209999 4294934528
69.510002 34.900002 56.889999 4294934528
69.519997 35 56.579998 4294934528
69.540001 35.07 56.009998 4294934528
69.559998 35.299999 55.48 4294934528
69.779999 34.610001 50.950001 4294934528
69.529999 35.52 55.939999 4294934528
69.779999 34.900002 50.739998 4294934528
69.480003 35.959999 56.829998 4294934528
69.790001 35.330002 50.360001 4294934528
69.769997 35.689999 50.489998 4294934528
69.760002 35.860001 50.610001 4294934528
69.5 33.560001 55.790001 4294934528
69.489998 33.720001 55.84 4294934528
69.449997 34.009998 56.579998 4294934528
69.440002 34.18 56.68 4294934528
69.400002 34.450001 57.349998 4294934528
69.43 34.490002 56.73 4294934528
69.400002 34.73 57.219997 4294934528
69.400002 34.849998 57.099998 4294934528
69.419998 34.950001 56.75 4294934528
69.449997 34.98 55.939999 4294934528
69.419998 35.220001 56.52 4294934528
69.489998 35.119999 54.91 4294934528
69.489998 35.259998 54.799999 4294934528
69.709999 34.580002 50.299999 4294934528
69.440002 35.580002 55.849998 4294934528
69.400002 35.84 56.639999 4294934528
69.690002 34.959999 50.689999 4294934528
69.389999 35.990002 56.599998 4294934528
69.699997 35.060001 50.200001 4294934528
69.699997 35.220001 50.169998 4294934528
69.690002 35.419998 50.380001 4294934528
