# .PCD v0.7 - Point Cloud Data file format
VERSION 0.7
FIELDS x y z
SIZE 4 4 4
TYPE F F F
COUNT 1 1 1
WIDTH 1573
HEIGHT 1
VIEWPOINT 0 0 0 1 0 0 0
POINTS 1573
DATA ascii
3.6319685 9.8273621 3.1175492
3.6656084 9.8245506 3.0787642
3.6922646 9.8210649 3.0302658
3.7259037 9.8182535 2.9914789
3.7595487 9.8154421 2.9527006
3.7861998 9.8119555 2.9041932
3.8128505 9.8084669 2.8556876
3.8464887 9.8056574 2.816901
3.8731401 9.8021698 2.7683947
3.9067841 9.7993593 2.7296152
3.9404292 9.7965479 2.6908381
3.9670806 9.7930613 2.6423314
4.0007195 9.7902498 2.603545
4.0343604 9.7873402 2.5647683
4.0679998 9.7845297 2.5259836
4.0876656 9.7804651 2.4677539
4.1143165 9.7769775 2.4192472
4.1409712 9.773591 2.3707387
4.1606374 9.7695274 2.3125098
4.1872883 9.7660389 2.2640023
4.199964 9.7613983 2.196044
4.2196302 9.7573338 2.1378152
4.2392907 9.7532711 2.0795784
4.2449775 9.7479553 2.0019002
4.2576528 9.7433147 1.9339399
4.2703295 9.7386742 1.8659811
4.2830009 9.7339344 1.7980242
4.2956834 9.7292929 1.7300735
4.2943792 9.7234001 1.6426635
4.3140402 9.7193356 1.5844264
4.3197274 9.7140198 1.5067475
4.3254185 9.7088022 1.4290659
4.3380899 9.7040634 1.3611093
4.3437819 9.6988468 1.2834275
4.3564539 9.6941051 1.2154706
4.3761201 9.6900415 1.1572416
4.3748169 9.6841488 1.0698318
4.3874922 9.6795082 1.0018737
4.3861899 9.6736145 0.91446304
4.3918772 9.6682987 0.83678412
4.4045525 9.6636572 0.76882529
4.4032507 9.6577635 0.6814158
4.4089375 9.6524467 0.6037364
4.4076347 9.6465549 0.51632643
4.4063315 9.6406603 0.42891669
4.3840642 9.6329365 0.31233454
4.3827672 9.6270437 0.22493315
4.3954434 9.6224041 0.15697384
4.3801613 9.6152582 0.050113678
4.3788586 9.6093645 -0.037295341
4.3356295 9.5998116 -0.18305087
4.3063726 9.5915127 -0.30936313
4.1093969 9.5685768 -0.66907406
4.0801401 9.560277 -0.79538679
4.0718484 9.5537081 -0.89251637
-8.1271353 9.9276648 2.9716039
-7.937932 9.9416094 3.1490576
-7.7561579 9.9547377 3.3161848
-7.5892372 9.9662561 3.4626665
-7.4148927 9.9785805 3.6194673
-7.3594036 9.9779654 3.6110644
-7.2073426 9.987855 3.7368927
-7.092423 9.9937 3.8110962
-6.9849396 9.9987392 3.8749642
-6.87745 10.003778 3.9388409
-6.8070993 10.004845 3.9510903
-6.7218986 10.00746 3.9839861
-6.6441298 10.0092 4.0065575
-6.5737796 10.010265 4.0188065
-6.4885778 10.012879 4.051703
-6.4182377 10.013844 4.0639467
-6.3478913 10.014809 4.0761986
-6.2404079 10.019851 4.1400661
-6.1774893 10.020041 4.1419907
-6.1145768 10.020231 4.1439071
-6.0590868 10.019647 4.1355033
-5.981308 10.021485 4.1580801
-5.918396 10.021678 4.159996
-5.8480501 10.022642 4.1722479
-5.7851372 10.022833 4.1741638
-5.7222185 10.023023 4.1760883
-5.6518745 10.024088 4.1883292
-5.5889568 10.02428 4.1902533
-5.5186157 10.025244 4.2024965
-5.4556975 10.025434 4.2044206
-5.400208 10.02485 4.1960177
-5.3372955 10.025041 4.1979337
-5.2818093 10.024356 4.1895328
-5.2263193 10.023772 4.181129
-5.1782675 10.022312 4.1623926
-5.1376381 10.020078 4.1333365
-5.0895767 10.018719 4.1146054
-5.0340905 10.018034 4.1062045
-4.9786005 10.017449 4.0978012
-4.9082594 10.018414 4.1100454
-4.8379092 10.019479 4.1222944
-4.7675686 10.020445 4.1345382
-4.6972222 10.021412 4.1467896
-4.6417379 10.020826 4.1383781
-4.5862484 10.020242 4.1299744
-4.5381908 10.018783 4.1112461
-4.490129 10.017422 4.0925155
-4.4272165 10.017614 4.0944319
-4.3647456 10.017506 4.0957527
-4.2961626 10.017677 4.1055999
-4.2345638 10.017273 4.1057248
-4.179956 10.01629 4.0961189
-4.1183662 10.015785 4.0962381
-4.0637641 10.014805 4.0866246
-4.0161448 10.013146 4.0672984
-3.9755151 10.010912 4.0382423
-3.9278967 10.009355 4.0189066
-3.8802772 10.007696 3.9995813
-3.8396478 10.005463 3.9705253
-3.785043 10.004382 3.9609218
-3.7234504 10.003978 3.9610391
-3.6618571 10.003572 3.9611554
-3.6002648 10.003167 3.9612722
-3.5316813 10.00334 3.9711194
-3.4630983 10.003511 3.9809666
-3.394515 10.003683 3.9908135
-3.3329256 10.003179 3.9909327
-3.2713327 10.002773 3.9910493
-3.1957593 10.003523 4.0106268
-3.113203 10.004948 4.0399165
-3.05161 10.004542 4.0400329
-2.9620614 10.006443 4.0790634
-2.8864899 10.007291 4.0986304
-2.8249006 10.006787 4.0987501
-2.7702925 10.005806 4.0891438
-2.7086997 10.005401 4.0892606
-2.6540952 10.00432 4.079658
-2.5785272 10.005068 4.0992274
-2.488981 10.007071 4.138247
-2.4273822 10.006665 4.1383715
-2.3588045 10.006837 4.148211
-2.2972057 10.006432 4.1483359
-2.2076595 10.008432 4.187356
-2.1460702 10.007929 4.1874743
-2.0844774 10.007524 4.1875916
-2.0158944 10.007696 4.1974382
-1.9473107 10.007867 4.2072854
-1.8857179 10.007462 4.2074032
-1.8381038 10.005806 4.1880693
-1.7904841 10.004148 4.1687431
-1.7358757 10.003166 4.1591377
-1.6812716 10.002084 4.1495342
-1.6126939 10.002256 4.1593738
-1.5510954 10.001853 4.1594987
-1.4825177 10.002024 4.1693368
-1.4139342 10.002195 4.1791849
-1.3593261 10.001214 4.169579
-1.311712 9.9995556 4.1502452
-1.2640922 9.9978991 4.1309204
-1.2024996 9.9974937 4.1310368
-1.1478951 9.9964132 4.1214328
-1.065333 9.9978371 4.1507311
-0.98976517 9.9985847 4.1703005
-0.92118728 9.9987593 4.1801395
-0.86657357 9.997776 4.1705413
-0.81197488 9.9966955 4.1609297
-0.75736642 9.9957142 4.1513247
-0.6957736 9.9953089 4.1514416
-0.63417888 9.9948053 4.1515684
-0.56559551 9.994976 4.1614165
-0.51099324 9.9939947 4.1518016
-0.44939417 9.9935894 4.1519275
-0.38780564 9.9930849 4.1520462
-0.32621235 9.9926805 4.152163
-0.25762945 9.9928532 4.1620102
-0.1890462 9.9930248 4.1718564
-0.12745339 9.9926195 4.1719737
-0.06586051 9.9922152 4.1720896
0.0027227998 9.9923868 4.1819382
0.064311981 9.9918823 4.1820564
0.13289517 9.992054 4.1919041
0.19448793 9.9916487 4.1920209
0.24909604 9.9906664 4.182415
0.3037008 9.9895878 4.172812
0.35830879 9.9886065 4.1632061
0.41291404 9.987524 4.1536031
0.46052742 9.9858675 4.1342683
0.51513588 9.9848843 4.1246634
0.56974071 9.9838047 4.1150603
0.62434876 9.9828234 4.1054544
0.67895305 9.9817429 4.0958519
0.74054635 9.9813375 4.0959682
0.85105568 9.9851665 4.1641607
0.9406029 9.9871693 4.2031808
1.0231609 9.9884939 4.2324815
1.0917438 9.9886656 4.2423277
1.1743 9.9900904 4.2716169
1.2428839 9.990262 4.2814651
1.3114672 9.9904346 4.2913122
1.3800497 9.9906063 4.301158
1.4486337 9.990778 4.3110065
1.5102222 9.9902725 4.3111253
1.5578399 9.9887152 4.2917891
1.6194288 9.9882116 4.2919078
1.681028 9.9878063 4.2920337
1.735636 9.986824 4.2824273
1.790235 9.9857426 4.2728157
1.8378549 9.984086 4.2534909
1.885473 9.9825277 4.2341547
1.9470618 9.9820232 4.234273
1.9946854 9.9804649 4.2149448
2.0423057 9.9788074 4.1956205
2.096904 9.977726 4.1860085
2.1445279 9.9761686 4.1666803
2.1921415 9.9745111 4.1473465
2.2257867 9.9717007 4.1085687
2.2734005 9.9700422 4.0892344
2.3210211 9.9683847 4.06991
2.3616505 9.9661503 4.040854
2.4092641 9.9644938 4.0215192
2.4568818 9.9629354 4.002183
2.4975114 9.960701 3.9731269
2.5381405 9.9584665 3.9440713
2.5787702 9.9562321 3.9150152
2.6263909 9.9545746 3.8956904
2.6600294 9.9517641 3.8569028
2.6936705 9.9488535 3.8181272
2.720325 9.9454651 3.769618
2.7609546 9.9432306 3.740562
2.7946 9.9404211 3.7017841
2.8352289 9.9381866 3.6727283
2.8898339 9.9371052 3.6631258
2.9304636 9.9348707 3.6340697
2.9780769 9.9332132 3.6147351
3.0187066 9.9309797 3.5856791
3.0593362 9.9287453 3.556623
3.0999658 9.9265108 3.5275667
3.1336107 9.9236994 3.4887896
3.1742406 9.9214649 3.4597335
3.2148702 9.9192314 3.4306774
3.2554994 9.916997 3.4016213
3.2961287 9.9147625 3.3725655
3.3367584 9.912528 3.3435094
3.377388 9.9102936 3.3144534
3.4180171 9.9080601 3.2853975
3.4516561 9.9052486 3.2466094
3.4922857 9.9030142 3.2175534
3.5329149 9.9007797 3.1884975
3.5665598 9.8979692 3.14972
3.5932105 9.8944817 3.1012132
3.6338401 9.8922472 3.0721569
3.660495 9.8888597 3.0236478
3.6941302 9.8859491 2.984864
3.7277756 9.8831387 2.9460857
3.7544303 9.8797522 2.8975773
3.7810805 9.8762636 2.8490703
3.8147254 9.8734531 2.8102922
3.8483696 9.8706417 2.7715139
3.875021 9.8671551 2.7230082
3.9086599 9.8643446 2.6842208
3.9423051 9.8615341 2.6454434
3.9759402 9.8586235 2.606658
4.0095854 9.8558121 2.5678806
4.0432239 9.8530006 2.5290935
4.0628901 9.848938 2.4708645
4.0895514 9.8455505 2.4223645
4.109211 9.841486 2.3641281
4.1428556 9.8386755 2.3253484
4.1625161 9.8346109 2.2671115
4.1821828 9.8305483 2.208883
4.194859 9.8259077 2.140924
4.2145243 9.8218441 2.082696
4.2272 9.8172035 2.0147369
4.239882 9.8125629 1.946785
4.2455668 9.8073473 1.869096
4.2582488 9.8027067 1.8011444
4.2709241 9.7980652 1.7331851
4.2766156 9.7928486 1.6555037
4.2892909 9.788208 1.5875442
4.3019671 9.7835684 1.5195851
4.3006697 9.7776756 1.4321837
4.3133459 9.7730341 1.3642247
4.3190365 9.7678185 1.2865431
4.3386965 9.7637529 1.2283061
4.344388 9.7585373 1.1506245
4.3500791 9.7533197 1.072943
4.3557673 9.748004 0.99526381
4.3684425 9.7433634 0.92730379
4.3671489 9.7375698 0.83990073
4.3728347 9.7323513 0.76221061
4.3785219 9.7270365 0.68453193
4.3772283 9.721242 0.59712815
4.389904 9.7166014 0.52916861
4.3746319 9.7095547 0.42231369
4.3663378 9.7030859 0.32517362
4.3650417 9.6971931 0.23777223
4.3707323 9.6919756 0.16009045
4.3624454 9.6855059 0.062959194
4.3471665 9.6784592 -0.043902874
4.3179197 9.6702595 -0.17021012
4.2816782 9.6613846 -0.3062458
4.0777264 9.638072 -0.6756835
4.0554633 9.6304483 -0.79226875
3.8934379 9.610795 -1.1033611
-8.0891542 10.000396 2.9761004
-7.8851109 10.015749 3.1741965
-7.7107706 10.027963 3.3309994
-7.5587187 10.037751 3.4568224
-7.3918104 10.049091 3.6033006
-7.351181 10.046857 3.5742445
-7.1768465 10.05907 3.7310393
-7.0767889 10.063235 3.7845907
-6.976737 10.0674 3.8381343
-6.869257 10.07234 3.902005
-6.7840557 10.074955 3.9349008
-6.7062874 10.076695 3.9574723
-6.6359463 10.07766 3.9697156
-6.5433168 10.081051 4.0129395
-6.4729757 10.082017 4.0251827
-6.4026299 10.082981 4.0374346
-6.302578 10.087147 4.0909777
-6.2173767 10.089762 4.1238737
-6.1470366 10.090727 4.1361179
-6.0915499 10.090042 4.127717
-6.0286379 10.090233 4.1296325
-5.9582911 10.091198 4.1418848
-5.8953791 10.091389 4.1438007
-5.825038 10.092354 4.156044
-5.7695518 10.09167 4.1476431
-5.6917791 10.093511 4.1702118
-5.6288671 10.0937 4.1721277
-5.5659523 10.09379 4.1740541
-5.4956121 10.094755 4.1862979
-5.4401283 10.094172 4.177886
-5.3772097 10.094362 4.1798105
-5.3217297 10.093678 4.171401
-5.2662401 10.093092 4.1629982
-5.2181816 10.091633 4.1442699
-5.1626959 10.09095 4.1358685
-5.1220665 10.088716 4.1068125
-5.0740099 10.087355 4.0880742
-5.0185242 10.08667 4.0796728
-4.9704723 10.085212 4.060936
-4.9001217 10.086277 4.0731854
-4.8297815 10.087242 4.0854292
-4.7668729 10.087334 4.0873475
-4.6965265 10.088298 4.0995989
-4.6484647 10.086939 4.0808682
-4.5929842 10.086255 4.0724592
-4.5374947 10.08567 4.0640559
-4.4820147 10.084985 4.0556469
-4.419096 10.085176 4.0575709
-4.3347807 10.087295 4.0892673
-4.2731876 10.08689 4.0893831
-4.2115984 10.086385 4.0895028
-4.1499996 10.08598 4.0896277
-4.0954013 10.084898 4.0800166
-4.047781 10.083241 4.0606909
-4.0001636 10.081682 4.0413551
-3.9525433 10.080026 4.0220294
-3.9119139 10.077791 3.9929733
-3.8643003 10.076133 3.9736395
-3.8166857 10.074474 3.9543059
-3.7620814 10.073394 3.9447026
-3.7074733 10.072413 3.935097
-3.6528685 10.071332 3.9254937
-3.5842853 10.071505 3.9353414
-3.522696 10.070999 3.9354601
-3.4611034 10.070595 3.9355769
-3.3855357 10.071343 3.9551463
-3.3239465 10.070838 3.9552653
-3.2623477 10.070433 3.9553909
-3.18678 10.071181 3.9749599
-3.1042275 10.072507 4.0042515
-3.0426383 10.072002 4.0043707
-2.9600801 10.073327 4.0336714
-2.8775277 10.074652 4.0629625
-2.8159347 10.074246 4.0630798
-2.7613304 10.073165 4.0534759
-2.6997375 10.072762 4.0535927
-2.6311579 10.072833 4.0634427
-2.5555902 10.073582 4.0830116
-2.4800222 10.074329 4.1025815
-2.4184291 10.073925 4.1026983
-2.3498499 10.073997 4.1125479
-2.2742822 10.074745 4.1321173
-2.1917238 10.07607 4.1614175
-2.130131 10.075665 4.1615338
-2.068542 10.07516 4.1616535
-1.9929738 10.07591 4.1812229
-1.931381 10.075504 4.1813393
-1.8767767 10.074424 4.1717367
-1.8221686 10.073441 4.1621304
-1.7745543 10.071784 4.1427965
-1.7129596 10.07128 4.1429238
-1.6513666 10.070875 4.1430411
-1.5967618 10.069793 4.1334386
-1.521194 10.070541 4.153007
-1.4596049 10.070037 4.1531267
-1.4049969 10.069057 4.1435204
-1.3573829 10.067399 4.1241865
-1.302778 10.066318 4.114584
-1.2481698 10.065336 4.1049786
-1.1726022 10.066084 4.124547
-1.097038 10.066732 4.1441193
-1.0144821 10.068156 4.1734085
-0.95987689 10.067076 4.1638055
-0.9052726 10.065995 4.1542034
-0.85066462 10.065014 4.1445971
-0.78907549 10.064509 4.1447158
-0.7204923 10.064681 4.154563
-0.65890318 10.064177 4.1546826
-0.59032029 10.064348 4.1645293
-0.53572124 10.063267 4.1549182
-0.48111326 10.062285 4.1453118
-0.41253316 10.062357 4.1551623
-0.34395611 10.06253 4.1650009
-0.26838797 10.063278 4.1845703
-0.20678943 10.062873 4.1846957
-0.14520037 10.062369 4.1848145
-0.083607554 10.061964 4.1849313
-0.022018552 10.061459 4.185051
0.046564758 10.06163 4.1948972
0.10815388 10.061125 4.1950169
0.1697467 10.060721 4.1951327
0.22435105 10.05964 4.1855302
0.27197146 10.057982 4.1662049
0.32657957 10.057001 4.1565986
0.37419385 10.055344 4.1372662
0.42180812 10.053687 4.1179323
0.46942753 10.052029 4.0986066
0.52402985 10.051047 4.0889926
0.57164985 10.049389 4.0696669
0.63323903 10.048883 4.0697861
0.68784702 10.047904 4.0601802
0.74245191 10.046823 4.0505772
0.80404085 10.046318 4.0506959
0.87960839 10.047066 4.0702658
0.96216083 10.04839 4.0995579
1.0726727 10.052122 4.1677608
1.1692042 10.0547 4.2165022
1.2377841 10.05477 4.2263536
1.3063608 10.054942 4.2361917
1.374944 10.055115 4.2460389
1.4365338 10.054611 4.2461576
1.4981265 10.054206 4.2462749
1.5597214 10.0537 4.2464018
1.6143236 10.05272 4.2367883
1.6689283 10.051638 4.2271852
1.7235327 10.050556 4.2175817
1.7781408 10.049576 4.2079754
1.8257556 10.047917 4.188643
1.8803593 10.046837 4.1790395
1.9349684 10.045856 4.1694341
1.9825821 10.044197 4.1501002
2.0371869 10.043117 4.1404977
2.0917912 10.042035 4.1308937
2.1394093 10.040478 4.1115575
2.1800387 10.038243 4.0825014
2.227658 10.036585 4.0631762
2.2752724 10.034929 4.0438423
2.3159018 10.032695 4.0147858
2.3635221 10.031036 3.995461
2.4111357 10.029378 3.9761276
2.4517653 10.027143 3.9470716
2.4923949 10.02491 3.9180155
2.5330243 10.022676 3.8889594
2.5666695 10.019865 3.8501806
2.6072991 10.017631 3.8211246
2.6269634 10.013666 3.7628851
2.660604 10.010756 3.7241094
2.7012336 10.008521 3.6950533
2.7488518 10.006964 3.6757171
2.7964711 10.005305 3.6563916
2.8440852 10.003649 3.6370578
2.8986897 10.002567 3.6274552
2.9393194 10.000333 3.5983989
2.9799488 9.9980984 3.5693431
3.0205781 9.9958639 3.5402873
3.0612078 9.9936295 3.5112309
3.1088223 9.9919729 3.4918971
3.1424668 9.9891615 3.453119
3.1830964 9.986927 3.424063
3.2307105 9.9852695 3.4047294
3.2643549 9.9824581 3.3659511
3.3049846 9.9802246 3.336895
3.3456142 9.9779902 3.3078389
3.3862441 9.9757557 3.2787828
3.4268732 9.9735212 3.249727
3.4605186 9.9707108 3.210948
3.5011482 9.9684772 3.1818919
3.5347869 9.9656668 3.1431053
3.5614414 9.9622784 3.0945969
3.5950825 9.9593668 3.0558207
3.6287282 9.9565563 3.0170424
3.6623666 9.9537458 2.9782567
3.6960115 9.9509354 2.9394774
3.7226665 9.9475479 2.8909688
3.7563019 9.9446373 2.8521841
3.7899458 9.9418259 2.813406
3.8166008 9.9384384 2.7648976
3.8502455 9.9356279 2.7261183
3.8838806 9.9327173 2.6873345
3.9105408 9.9293299 2.6388338
3.9441807 9.9265184 2.6000478
3.9778252 9.9237089 2.5612686
4.0114641 9.9208984 2.5224829
4.0381207 9.9174099 2.4739845
4.0647755 9.9140234 2.4254761
4.0844417 9.9099598 2.3672466
4.1110964 9.9065733 2.3187387
4.1377501 9.9031849 2.2702291
4.1574173 9.8991203 2.2120008
4.1700921 9.8944798 2.1440406
4.1897621 9.8905163 2.085809
4.2024384 9.8858767 2.0178509
4.2151227 9.8813362 1.9498968
4.2208085 9.8761187 1.8722076
4.2404752 9.8720551 1.8139791
4.2461662 9.8668365 1.7362967
4.2518573 9.8616219 1.6586151
4.2645369 9.8570805 1.5906534
4.2772183 9.8524408 1.5227027
4.2829094 9.8472233 1.4450214
4.2955852 9.8425837 1.3770621
4.2942915 9.8367901 1.2896585
4.3139558 9.8328257 1.2314179
4.319653 9.8276091 1.1537449
4.3253384 9.8223915 1.0760558
4.3310299 9.8171749 0.99837446
4.3437142 9.8126354 0.93042064
4.342412 9.8067427 0.84301138
4.3481064 9.8016243 0.76532626
4.353797 9.7964067 0.68764472
4.3525038 9.7906132 0.60024095
4.3581953 9.7853966 0.52255917
4.3499117 9.7790279 0.42542505
4.3416243 9.7725573 0.32829404
4.3473148 9.7673397 0.25061178
4.346015 9.7615461 0.1631999
4.3307471 9.7546005 0.056342602
4.3154788 9.747654 -0.050513744
4.3002067 9.7406073 -0.15736818
4.2569847 9.7312555 -0.30312777
3.9552174 9.6999702 -0.80872989
3.9119964 9.6905193 -0.95447922
3.9037125 9.6841488 -1.0516138
3.9024131 9.6783552 -1.1390257
-8.058609 10.072321 2.9702623
-7.8694305 10.085885 3.1477089
-7.6950998 10.097998 3.3045063
-7.4613543 10.116312 3.5439081
-7.3761625 10.118827 3.5767984
-7.320673 10.118241 3.5683949
-7.1612024 10.128708 3.7045398
-7.0685825 10.131997 3.7477579
-6.9685349 10.136062 3.8013036
-6.8610544 10.141002 3.8651745
-6.7758627 10.143517 3.8980646
-6.7055225 10.144482 3.9103084
-6.6129026 10.147773 3.953526
-6.5277052 10.150287 3.9864252
-6.4647965 10.150377 3.988344
-6.357317 10.155318 4.0522141
-6.2721195 10.157833 4.085113
-6.2017784 10.158797 4.0973563
-6.1314383 10.159764 4.1096001
-6.0759573 10.15908 4.101191
-6.0056171 10.160045 4.1134343
-5.9352798 10.16091 4.1256804
-5.8723679 10.161101 4.1275969
-5.8168812 10.160416 4.1191955
-5.746541 10.161382 4.1314392
-5.6762004 10.162346 4.143683
-5.6132917 10.162438 4.1456013
-5.5429506 10.163403 4.1578445
-5.4874649 10.162718 4.1494436
-5.4245529 10.162909 4.1513605
-5.369072 10.162224 4.1429505
-5.3135824 10.161639 4.1345477
-5.2581015 10.160956 4.1261387
-5.2100444 10.159495 4.10741
-5.1545544 10.158912 4.0990067
-5.1064968 10.157452 4.0802779
-5.0584445 10.155993 4.0615416
-5.0103869 10.154533 4.0428128
-4.9623289 10.153074 4.0240846
-4.8919883 10.154038 4.0363278
-4.8290796 10.15413 4.0382462
-4.7661676 10.154321 4.040163
-4.7032547 10.154511 4.0420785
-4.647769 10.153827 4.0336781
-4.5922885 10.153141 4.0252686
-4.5293703 10.153333 4.0271926
-4.4664617 10.153422 4.0291114
-4.3886929 10.155164 4.051682
-4.3118052 10.156507 4.0730515
-4.250216 10.156002 4.0731707
-4.1886239 10.155597 4.073287
-4.1340189 10.154516 4.0636835
-4.0794144 10.153435 4.054081
-4.0318003 10.151776 4.0347466
-3.9841802 10.150119 4.0154209
-3.9365664 10.148461 3.9960876
-3.895937 10.146227 3.9670315
-3.8483233 10.144569 3.9476981
-3.8007026 10.142912 3.9283729
-3.7530851 10.141354 3.9090362
-3.7054708 10.139696 3.8897026
-3.6368914 10.139767 3.8995523
-3.5822866 10.138686 3.8899493
-3.5206978 10.138182 3.8900681
-3.4521203 10.138354 3.8999071
-3.3835411 10.138426 3.9097567
-3.3149633 10.138597 3.9195957
-3.2533684 10.138093 3.9197235
-3.1708159 10.139418 3.9490147
-3.1022363 10.139489 3.9588649
-3.0336628 10.139563 3.9687059
-2.9511104 10.140886 3.9979978
-2.8755465 10.141536 4.0175695
-2.8139477 10.141131 4.017695
-2.7523584 10.140625 4.0178142
-2.6977601 10.139544 4.0082026
-2.6152015 10.140869 4.0375023
-2.5466278 10.140942 4.0473442
-2.4850388 10.140437 4.0474634
-2.4164555 10.140609 4.0573101
-2.3548665 10.140104 4.0574288
-2.2513545 10.143158 4.1158962
-2.1827748 10.14323 4.1257463
-2.121182 10.142826 4.1258631
-2.0526028 10.142898 4.1357121
-1.9840288 10.142969 4.1455541
-1.9154458 10.143141 4.1554012
-1.8678315 10.141483 4.1360679
-1.8132269 10.140403 4.1264639
-1.7586222 10.139321 4.1168613
-1.6970296 10.138917 4.1169772
-1.628456 10.138988 4.1268196
-1.5668609 10.138484 4.1269464
-1.4982833 10.138657 4.136785
-1.4506638 10.136998 4.1174598
-1.4030492 10.13534 4.0981264
-1.3484449 10.134258 4.0885224
-1.2938405 10.133179 4.0789204
-1.2182729 10.133926 4.0984898
-1.1287397 10.135727 4.137506
-1.0531716 10.136476 4.1570759
-0.99856687 10.135394 4.1474729
-0.93697751 10.134891 4.1475916
-0.88237321 10.13381 4.1379886
-0.8207804 10.133405 4.1381049
-0.75919127 10.1329 4.1382236
-0.68362319 10.133648 4.157794
-0.62203467 10.133143 4.1579132
-0.56044567 10.132639 4.1580324
-0.49885082 10.132133 4.1581588
-0.43725753 10.131728 4.1582761
-0.36169368 10.132379 4.1778479
-0.29311609 10.13255 4.1876864
-0.23152703 10.132045 4.1878061
-0.16993791 10.13154 4.1879244
-0.10834891 10.131035 4.1880441
-0.046750367 10.13063 4.188169
0.021823525 10.130703 4.1980114
0.083412647 10.130198 4.1981297
0.13802105 10.129216 4.1885247
0.1926254 10.128135 4.1789207
0.24723023 10.127055 4.1693182
0.28785968 10.124822 4.1402621
0.33547348 10.123163 4.1209283
0.383093 10.121505 4.1016021
0.43070722 10.119846 4.0822682
0.47832155 10.11819 4.0629349
0.52594155 10.116532 4.0436096
0.5805496 10.115551 4.0340033
0.63514864 10.114469 4.0243921
0.69673723 10.113964 4.0245113
0.75134188 10.112883 4.0149083
0.79895627 10.111226 3.9955745
0.86753905 10.111398 4.0054216
0.92214394 10.110316 3.9958191
1.0186715 10.112795 4.0445633
1.1291736 10.116425 4.1127605
1.232686 10.119479 4.1712279
1.3012649 10.119553 4.181077
1.3698388 10.119623 4.1909189
1.4314321 10.119219 4.1910362
1.4930266 10.118714 4.1911631
1.5476253 10.117633 4.1815519
1.6022304 10.116552 4.1719489
1.6568383 10.115571 4.162343
1.7114427 10.114489 4.152739
1.7590568 10.112832 4.1334062
1.8206459 10.112327 4.1335249
1.8682661 10.110669 4.1141996
1.922865 10.109589 4.1045885
1.9774729 10.108606 4.0949821
2.0250926 10.106949 4.0756578
2.0727069 10.10529 4.0563231
2.1273117 10.10421 4.04672
2.1749253 10.102551 4.0273867
2.2225454 10.100894 4.0080605
2.2701595 10.099236 3.9887266
2.3107889 10.097002 3.9596705
2.358403 10.095345 3.9403377
2.3990326 10.09311 3.9112816
2.4466527 10.091454 3.8919559
2.4802914 10.088641 3.8531699
2.5139363 10.085831 3.8143907
2.5336068 10.081867 3.7561598
2.567246 10.079057 3.7173736
2.6148655 10.077398 3.6980476
2.6554952 10.075164 3.6689916
2.7100995 10.074082 3.6593881
2.7577136 10.072426 3.6400542
2.8123178 10.071345 3.6304519
2.8599355 10.069787 3.6111157
2.9005651 10.067553 3.5820596
2.9481847 10.065895 3.5627337
2.9888144 10.063662 3.5336776
3.0364289 10.062003 3.5143447
3.0770586 10.059769 3.4852884
3.1176877 10.057534 3.4562325
3.1583176 10.0553 3.4271765
3.1989472 10.053066 3.3981204
3.2395763 10.050832 3.3690643
3.2802057 10.048597 3.3400085
3.3208354 10.046363 3.3109524
3.35448 10.043552 3.2721732
3.3951092 10.041319 3.2431173
3.435739 10.039084 3.214061
3.4693782 10.036273 3.1752751
3.5030193 10.033362 3.1364994
3.5296736 10.029974 3.08799
3.5633187 10.027164 3.0492117
3.5969579 10.024352 3.0104256
3.6236129 10.020966 2.9619169
3.6642423 10.018731 2.9328611
3.6978869 10.01592 2.8940818
3.7245419 10.012533 2.8455729
3.758182 10.009623 2.8067973
3.7848365 10.006235 2.7582884
3.8184817 10.003424 2.7195106
3.8521211 10.000613 2.6807237
3.8857656 9.9978027 2.6419454
3.919405 9.9949923 2.6031594
3.9460654 9.9916039 2.5546575
3.9797046 9.9887934 2.5158715
4.0133495 9.9859829 2.4770935
4.0330153 9.9819202 2.418864
4.0596704 9.9785318 2.3703558
4.079339 9.9745684 2.3121243
4.1129789 9.9717569 2.2733383
4.1326447 9.9676924 2.2151086
4.1453304 9.9631538 2.1471546
4.15801 9.9586115 2.0791941
4.1776762 9.9545479 2.0209646
4.190361 9.9500084 1.9530118
4.196053 9.9447908 1.87533
4.2087317 9.9402523 1.8073685
4.2214174 9.93571 1.7394145
4.2410774 9.9316463 1.6811779
4.2397876 9.9259529 1.5937715
4.2524638 9.9213123 1.5258119
4.2581644 9.9161968 1.4481359
4.2638555 9.9109793 1.3704553
4.276535 9.9064388 1.3024938
4.2822299 9.9013205 1.2248099
4.2949114 9.8966799 1.1568582
4.2936158 9.8909874 1.069443
4.2993069 9.8857708 0.99176145
4.3050022 9.8806534 0.91407752
4.310699 9.8754377 0.8364048
4.3163939 9.8703184 0.75872064
4.3220854 9.8651028 0.68103909
4.3277798 9.8599854 0.60335517
4.3264809 9.8541927 0.51594377
4.318203 9.8478231 0.41881704
4.3169069 9.8421278 0.3314023
4.3156133 9.8363352 0.24399829
4.3213086 9.8312178 0.16631436
4.2920651 9.8231192 0.04000473
4.290772 9.8173246 -0.047399044
4.2685184 9.8098011 -0.16397834
4.2322845 9.8011265 -0.30001783
3.9445188 9.7713938 -0.78616095
3.8943155 9.7615662 -0.9416461
3.9069972 9.7569246 -1.0095968
3.8498037 9.7465181 -1.1748123
-8.2097979 10.131516 2.7973197
-7.9983511 10.147305 3.0057349
-7.8463182 10.156895 3.1315465
-7.6348705 10.172684 3.339962
-7.4308462 10.187698 3.5380585
-7.3456545 10.190212 3.5709491
-7.2530384 10.193403 3.6141691
-7.1455679 10.198243 3.6780343
-7.052948 10.201532 3.7212529
-6.9603286 10.204823 3.7644706
-6.8454294 10.210438 3.8386631
-6.7750931 10.211304 3.850909
-6.6899014 10.213818 3.8837996
-6.604713 10.216233 3.9166927
-6.5120935 10.219524 3.9599106
-6.4417567 10.220389 3.9721568
-6.3417149 10.224454 4.0256944
-6.2639456 10.226195 4.0482655
-6.1936088 10.22706 4.0605116
-6.1232677 10.228025 4.0727553
-6.060359 10.228117 4.0746737
-5.9900279 10.228981 4.0869112
-5.9271164 10.229172 4.0888276
-5.8567791 10.230037 4.1010733
-5.79387 10.230129 4.1029916
-5.7309575 10.230318 4.104908
-5.6606207 10.231183 4.1171541
-5.5902834 10.232049 4.1294003
-5.5347939 10.231465 4.1209965
-5.4718857 10.231555 4.1229148
-5.4164052 10.23087 4.1145058
-5.3609247 10.230187 4.1060967
-5.2980165 10.230276 4.1080155
-5.2499552 10.228917 4.0892839
-5.1944685 10.228233 4.0808835
-5.1464167 10.226773 4.0621471
-5.0983586 10.225314 4.0434184
-5.0428782 10.224629 4.0350094
-5.0022488 10.222395 4.0059538
-4.946763 10.221712 3.9975522
-4.8764281 10.222676 4.0097876
-4.8209419 10.221992 4.0013871
-4.7654619 10.221307 3.9929776
-4.7099752 10.220624 3.9845769
-4.6544914 10.220039 3.9761648
-4.5841551 10.220904 3.9884109
-4.521246 10.220993 3.9903297
-4.4434767 10.222734 4.0129008
-4.3582892 10.225149 4.0457945
-4.2888303 10.225719 4.0568352
-4.2202568 10.225791 4.0666761
-4.1656523 10.22471 4.0570731
-4.1110477 10.223628 4.0474701
-4.0634336 10.22197 4.0281363
-4.0158195 10.220312 4.0088024
-3.9681993 10.218656 3.9894776
-3.9205856 10.216998 3.9701433
-3.879956 10.214764 3.9410872
-3.8323359 10.213105 3.9217625
-3.7847216 10.211447 3.9024286
-3.744092 10.209213 3.8733726
-3.6894937 10.208132 3.8637607
-3.6348891 10.207051 3.8541574
-3.5802846 10.205969 3.8445549
-3.5186954 10.205464 3.8446741
-3.4501219 10.205538 3.8545151
-3.3815422 10.20561 3.8643651
-3.3129685 10.205681 3.8742065
-3.2443891 10.205753 3.8840561
-3.1688247 10.206401 3.9036281
-3.0932572 10.20715 3.9231975
-3.0176992 10.207799 3.9427609
-2.9351504 10.209023 3.9720552
-2.8665709 10.209095 3.981905
-2.8049815 10.208591 3.9820244
-2.7433925 10.208086 3.9821436
-2.6887882 10.207005 3.9725399
-2.613224 10.207652 3.9921122
-2.5376658 10.2083 4.0116758
-2.4690862 10.208374 4.0215259
-2.4144816 10.207293 4.0119224
-2.3598831 10.206211 4.0023108
-2.2354093 10.210896 4.0899639
-2.1738164 10.21049 4.0900807
-2.1122272 10.209986 4.0901999
-2.0436535 10.210058 4.1000409
-1.9680896 10.210706 4.1196127
-1.9065001 10.210201 4.1197324
-1.8518956 10.20912 4.1101289
-1.7972914 10.208039 4.1005259
-1.7357023 10.207535 4.1006446
-1.674113 10.207029 4.1007643
-1.6055397 10.207102 4.1106052
-1.5439503 10.206597 4.1107249
-1.4893458 10.205515 4.1011214
-1.4417317 10.203859 4.0817876
-1.3871274 10.202777 4.072185
-1.3395129 10.201119 4.0528512
-1.2569588 10.202344 4.0821528
-1.1604351 10.204722 4.1309004
-1.084873 10.205471 4.1504617
-1.0302684 10.20439 4.1408587
-0.97566366 10.203308 4.1312556
-0.91407442 10.202804 4.1313748
-0.8524853 10.202298 4.1314945
-0.78391242 10.202372 4.1413355
-0.71533245 10.202443 4.151185
-0.65374333 10.201939 4.1513047
-0.58516949 10.20201 4.1611457
-0.52358037 10.201505 4.1612649
-0.45500129 10.201578 4.1711135
-0.37943691 10.202227 4.1906867
-0.31784797 10.201722 4.190805
-0.25625879 10.201218 4.1909246
-0.20166022 10.200134 4.181314
-0.14006549 10.199632 4.1814399
-0.071487904 10.199803 4.1912794
-0.0098987818 10.199298 4.1913991
0.051690161 10.198792 4.1915178
0.11327934 10.198288 4.1916361
0.16089928 10.196631 4.1723113
0.21550411 10.195549 4.1627083
0.25613362 10.193315 4.1336522
0.30374742 10.191659 4.1143179
0.34437692 10.189425 4.0852623
0.39898169 10.188344 4.0756588
0.44659543 10.186686 4.0563254
0.49420965 10.185027 4.0369916
0.54881394 10.183946 4.027389
0.59642839 10.182288 4.0080552
0.65801734 10.181784 4.0081739
0.70563745 10.180126 3.9888487
0.7602421 10.179046 3.9792452
0.80785596 10.177387 3.9599116
0.86944544 10.176882 3.9600313
0.92404974 10.175801 3.9504273
0.97864783 10.17472 3.9408162
1.0542127 10.175368 3.9603882
1.20663 10.182358 4.0869384
1.2891828 10.183682 4.11623
1.3647469 10.184332 4.1358023
1.4193516 10.183251 4.1261992
1.4739501 10.182169 4.1165881
1.5285543 10.181089 4.1069841
1.5831586 10.180007 4.0973816
1.6447479 10.179502 4.0974998
1.6993521 10.178422 4.0878963
1.7539512 10.177341 4.0782852
1.8085558 10.176259 4.0686827
1.8561698 10.174602 4.0493488
1.9177649 10.174096 4.0494771
1.9653789 10.172439 4.0301423
2.0199835 10.171357 4.0205398
2.0675974 10.169701 4.0012059
2.1222022 10.168618 3.9916031
2.1698163 10.166961 3.9722688
2.2174301 10.165303 3.952935
2.2650504 10.163645 3.9336107
2.3056803 10.16141 3.9045548
2.3463097 10.159176 3.8754988
2.386939 10.156941 3.8464427
2.4275689 10.154708 3.8173866
2.4542229 10.151321 3.7688766
2.4948523 10.149087 3.7398205
2.5284972 10.146276 3.7010427
2.5761116 10.144618 3.6817083
2.6307158 10.143537 3.6721065
2.6783295 10.14188 3.6527708
2.7329342 10.1408 3.6431682
2.7805481 10.139141 3.6238346
2.8281684 10.137483 3.6045094
2.8757823 10.135826 3.585176
2.9233961 10.134168 3.5658419
2.9640255 10.131933 3.5367861
3.011646 10.130276 3.5174611
3.0522757 10.128041 3.4884048
3.0929055 10.125808 3.4593487
3.1405189 10.12415 3.4400151
3.1741643 10.121339 3.4012368
3.2147937 10.119104 3.3721809
3.2554228 10.11687 3.3431249
3.2960525 10.114636 3.3140688
3.3296909 10.111825 3.2752819
3.3703208 10.109591 3.2462258
3.4039657 10.10678 3.2074478
3.4445953 10.104546 3.1783915
3.4712498 10.101159 3.1298819
3.5048947 10.098349 3.0911038
3.5315487 10.09496 3.0425944
3.5721784 10.092726 3.0135381
3.5988333 10.089337 2.96503
3.6324782 10.086528 2.9262519
3.659132 10.08314 2.8777423
3.6927774 10.08033 2.8389649
3.7264228 10.077518 2.8001864
3.7600613 10.074707 2.7613993
3.7937059 10.071897 2.7226212
3.8203611 10.06851 2.674113
3.8540058 10.065699 2.635334
3.8876445 10.062888 2.5965474
3.9143054 10.0595 2.5480468
3.9479444 10.056691 2.5092595
3.9815893 10.053879 2.4704823
4.008244 10.050492 2.4219744
4.0349035 10.047104 2.3734722
4.0545678 10.04314 2.3152328
4.0812283 10.039754 2.2667325
4.1008987 10.035789 2.2085016
4.1205688 10.031825 2.1502695
4.1332483 10.027284 2.0823078
4.1459332 10.022744 2.0143549
4.1586089 10.018105 1.9463959
4.1712937 10.013564 1.8784418
4.1839733 10.009024 1.8104806
4.1966591 10.004481 1.742527
4.2093439 9.9999418 1.6745734
4.2150397 9.9948254 1.596889
4.2277179 9.9902849 1.5289273
4.2334137 9.9851675 1.4512434
4.2391143 9.980051 1.3735683
4.2517939 9.9755106 1.3056056
4.2574883 9.9703932 1.2279215
4.2631836 9.9652758 1.1502383
4.2688804 9.9600601 1.0725644
4.2745757 9.9549427 0.99488044
4.2802706 9.9498253 0.91719675
4.285965 9.9447088 0.83951259
4.291666 9.9395914 0.76183605
4.2973604 9.934474 0.68415332
4.3030558 9.9293575 0.60646939
4.294775 9.9230871 0.50933194
4.3004704 9.9179707 0.43164778
4.285212 9.9111233 0.32479668
4.2839184 9.9053307 0.23739266
4.2896128 9.9002132 0.15970898
4.2673578 9.8927898 0.043119431
4.2520933 9.8859425 -0.0637393
4.2438188 9.879673 -0.16086912
4.2075949 9.8710966 -0.29690337
3.9128611 9.8410883 -0.79276752
3.8626618 9.8313599 -0.94825459
3.8683562 9.8262424 -1.0259385
3.8321285 9.8175659 -1.1619701
-8.0901279 10.212801 2.915386
-7.997508 10.216091 2.9586036
-7.7935023 10.230905 3.1566885
-7.6117754 10.243395 3.3237991
-7.4003377 10.259083 3.5322092
-7.3002987 10.263048 3.5857487
-7.2076826 10.266238 3.6289692
-7.1076446 10.270205 3.6825094
-7.0298853 10.271844 3.7050748
-6.9298429 10.275909 3.7586126
-6.8372269 10.279099 3.8018327
-6.7594676 10.280741 3.824398
-6.6817083 10.282379 3.8469634
-6.5965204 10.284795 3.8798566
-6.4890537 10.289536 3.9437239
-6.4187226 10.290401 3.9559619
-6.3335352 10.292816 3.9888549
-6.2557659 10.294557 4.011426
-6.1854348 10.295423 4.023664
-6.115098 10.296287 4.0359097
-6.0447664 10.297153 4.0481477
-5.9744296 10.298018 4.0603933
-5.911521 10.298109 4.0623121
-5.8486128 10.2982 4.0642309
-5.7857037 10.298289 4.0661488
-5.715373 10.299155 4.0783873
-5.6524639 10.299246 4.0803061
-5.5821271 10.300112 4.0925517
-5.5192184 10.300201 4.09447
-5.456316 10.300292 4.0963802
-5.4008303 10.299608 4.0879793
-5.3453493 10.298923 4.0795703
-5.2898655 10.29834 4.0711584
-5.2418079 10.296879 4.0524306
-5.1863275 10.296195 4.0440211
-5.1382694 10.294735 4.0252924
-5.0827894 10.294052 4.0168839
-5.0347314 10.292593 3.9981554
-4.9866791 10.291133 3.9794188
-4.9311934 10.290447 3.9710176
-4.8682847 10.290538 3.9729362
-4.8128042 10.289855 3.9645271
-4.7573242 10.289169 3.9561176
-4.7092662 10.287711 3.9373894
-4.6463575 10.2878 3.9393077
-4.5760269 10.288667 3.9515457
-4.490839 10.291082 3.9844391
-4.4130735 10.292722 4.0070124
-4.3427429 10.293588 4.0192504
-4.2658587 10.294831 4.0406218
-4.2042694 10.294326 4.040741
-4.1496711 10.293245 4.0311294
-4.0950665 10.292165 4.0215263
-4.0474467 10.290506 4.0022006
-3.9928479 10.289425 3.992589
-3.9522183 10.28719 3.9635329
-3.9046044 10.285533 3.9442
-3.863975 10.283299 3.915144
-3.8163548 10.281642 3.8958182
-3.7757254 10.279408 3.8667622
-3.7281151 10.277649 3.8474305
-3.6805012 10.275991 3.8280969
-3.6328812 10.274334 3.8087711
-3.5712919 10.273829 3.8088908
-3.5166931 10.272748 3.7992795
-3.4481134 10.272819 3.809129
-3.3725495 10.273468 3.828701
-3.3039796 10.273441 3.8385448
-3.2354064 10.273512 3.8483863
-3.1738169 10.273007 3.8485057
-3.0982528 10.273656 3.8680775
-3.015708 10.274781 3.8973742
-2.9261749 10.276583 3.9363909
-2.857595 10.276656 3.9462399
-2.7960098 10.276051 3.9463623
-2.7344208 10.275545 3.9464812
-2.679822 10.274465 3.9368699
-2.6042578 10.275113 3.9564419
-2.5356843 10.275185 3.9662833
-2.4740987 10.274579 3.9664049
-2.4125099 10.274076 3.9665241
-2.3579051 10.272994 3.9569209
-2.2194662 10.278732 4.0640206
-2.1648674 10.27765 4.0544095
-2.1032784 10.277145 4.0545282
-2.034699 10.277218 4.0643778
-1.9521539 10.278343 4.0936747
-1.8975496 10.277263 4.0840716
-1.8429506 10.276181 4.07446
-1.7813617 10.275676 4.0745797
-1.7197723 10.275171 4.0746984
-1.6581833 10.274666 4.0748177
-1.582623 10.275216 4.0943923
-1.5280186 10.274135 4.0847888
-1.4804046 10.272476 4.065455
-1.4258001 10.271395 4.0558519
-1.3712013 10.270314 4.0462408
-1.3235813 10.268658 4.0269151
-1.2061076 10.272664 4.1048322
-1.1235592 10.273889 4.1341262
-1.0619699 10.273384 4.1342449
-1.0143536 10.271626 4.114922
-0.94578028 10.271698 4.124763
-0.88419116 10.271194 4.1248827
-0.81561112 10.271266 4.1347322
-0.75402212 10.270761 4.134851
-0.6924367 10.270157 4.134973
-0.62386286 10.270229 4.1448154
-0.54830515 10.270878 4.1643786
-0.47972512 10.270949 4.1742282
-0.40417123 10.271498 4.1937938
-0.34257597 10.270993 4.193922
-0.2879774 10.269913 4.1843095
-0.22638834 10.269408 4.1844292
-0.16479927 10.268903 4.1845479
-0.10321015 10.268398 4.1846676
-0.041624844 10.267793 4.1847887
0.019964159 10.267288 4.1849079
0.081553817 10.266785 4.1850281
0.12917376 10.265126 4.1657019
0.17678797 10.263468 4.1463685
0.22440183 10.26181 4.1270347
0.27202177 10.260153 4.1077094
0.31963611 10.258495 4.0883756
0.3742404 10.257415 4.0787721
0.42185092 10.255657 4.0594406
0.47645521 10.254576 4.0498381
0.52406943 10.252918 4.0305042
0.57867378 10.251837 4.0209002
0.62628806 10.250179 4.0015669
0.67390233 10.248521 3.9822333
0.72152174 10.246864 3.9629083
0.76913613 10.245206 3.9435744
0.82374036 10.244125 3.9339709
0.87833953 10.243043 3.9243593
0.93992841 10.242538 3.924479
0.98754448 10.240781 3.9051557
1.0421429 10.2397 3.8955441
1.1037322 10.239196 3.895664
1.1792963 10.239844 3.9152358
1.3456794 10.247888 4.0612335
1.4002843 10.246805 4.05163
1.461869 10.246202 4.0517507
1.5164745 10.245121 4.0421476
1.5710728 10.24404 4.0325365
1.6326621 10.243535 4.0326562
1.6872661 10.242454 4.0230522
1.7418705 10.241372 4.0134497
1.8034598 10.240869 4.0135679
1.8510743 10.23921 3.9942358
1.9126592 10.238605 3.9943559
1.9602735 10.236948 3.9750233
2.014878 10.235866 3.9654191
2.0624921 10.23421 3.9460859
2.110112 10.232552 3.9267607
2.1647108 10.231469 3.9171491
2.2123303 10.229812 3.8978233
2.2529597 10.227577 3.8687673
2.2935891 10.225344 3.8397112
2.3342187 10.223109 3.8106551
2.3748484 10.220875 3.781599
2.4084876 10.218063 3.7428131
2.4561071 10.216406 3.7234874
2.5037215 10.214749 3.7041535
2.5443511 10.212515 3.6750972
2.5989552 10.211433 3.6654935
2.6535542 10.210351 3.6558833
2.7081554 10.209171 3.6462827
2.7557693 10.207514 3.6269484
2.8033891 10.205856 3.6076233
2.8510034 10.204199 3.5882895
2.891633 10.201964 3.5592334
2.9392464 10.200306 3.5398998
2.9868665 10.198649 3.5205741
3.0344806 10.19699 3.5012403
3.0751102 10.194756 3.4721839
3.1157393 10.192521 3.4431281
3.1563692 10.190287 3.414072
3.1900144 10.187478 3.3752937
3.2306437 10.185244 3.3462377
3.2712731 10.183009 3.3171818
3.3049121 10.180198 3.2783954
3.3385575 10.177387 3.2396171
3.3791866 10.175154 3.2105613
3.4128318 10.172342 3.1717827
3.4394865 10.168955 3.1232741
3.4731348 10.166244 3.0844927
3.5067735 10.163431 3.045707
3.5334337 10.160046 2.997205
3.5670738 10.157234 2.9584198
3.600718 10.154424 2.9196405
3.6343627 10.151612 2.8808625
3.6680024 10.148801 2.8420761
3.6946628 10.145415 2.7935753
3.7283015 10.142605 2.7547886
3.7619462 10.139792 2.7160101
3.7886007 10.136406 2.6675019
3.8222458 10.133594 2.6287227
3.855891 10.130785 2.5899448
3.8825493 10.127497 2.5414343
3.916194 10.124686 2.5026546
3.9498327 10.121875 2.4638686
3.9764929 10.118487 2.4153683
4.0031476 10.115101 2.3668587
4.0298028 10.111713 2.3183506
4.0564628 10.108326 2.2698498
4.0691423 10.103785 2.2018881
4.0888152 10.099921 2.1436536
4.1015015 10.095381 2.0757005
4.121171 10.091416 2.0174694
4.1268663 10.0863 1.939786
4.1465354 10.082335 1.8815548
4.159225 10.077895 1.8135977
4.1649194 10.072778 1.735914
4.1776047 10.068237 1.6679609
4.1902885 10.063797 1.5999968
4.2029734 10.059257 1.532043
4.2086692 10.054139 1.4543588
4.2143693 10.049024 1.3766837
4.2270527 10.044583 1.3087196
4.2187777 10.038312 1.211591
4.2384477 10.034348 1.1533592
4.2371616 10.028754 1.0659502
4.2428565 10.023639 0.98826623
4.2485576 10.018521 0.91059089
4.2542529 10.013403 0.83290696
4.2599511 10.008386 0.75521946
4.2726369 10.003846 0.68726611
4.2643628 9.9975758 0.59013772
4.2560854 9.9914055 0.49299836
4.2687712 9.986866 0.42504525
4.2604947 9.9806948 0.32790518
4.2522202 9.9744253 0.23077631
4.2509303 9.9687319 0.14337039
4.2356701 9.9619856 0.036509275
4.2064357 9.9539852 -0.089795589
4.2191248 9.9495449 -0.15775204
3.9453621 9.9215641 -0.62444735
3.8602376 9.9090538 -0.82855678
3.824023 9.9005766 -0.96458554
3.8227334 9.8948832 -1.0519919
3.8354166 9.8904419 -1.119956
-8.0744247 10.283237 2.8889072
-7.9446888 10.290201 2.9837432
-7.7629709 10.302589 3.1508482
-7.5441284 10.318756 3.3695769
-7.3772616 10.329595 3.5160346
-7.2475209 10.336659 3.610868
-7.1697659 10.3382 3.633436
-7.0771503 10.34139 3.6766567
-6.9845395 10.344581 3.7198691
-6.9067841 10.346121 3.7424369
-6.8290248 10.34776 3.7650023
-6.7586932 10.348626 3.7772403
-6.6660867 10.351715 3.8204551
-6.5808988 10.354132 3.8533478
-6.4882889 10.357323 3.8965602
-6.3956823 10.360413 3.9397752
-6.3253517 10.361278 3.952013
-6.247592 10.362917 3.9745789
-6.1772585 10.363685 3.9868271
-6.1069279 10.36455 3.9990647
-6.0365963 10.365415 4.0113029
-5.96626 10.36628 4.0235491
-5.9033566 10.36637 4.0254593
-5.8404522 10.366362 4.02738
-5.7775431 10.366451 4.0292983
-5.7072124 10.367316 4.0415363
-5.6443033 10.367407 4.0434551
-5.5739727 10.368272 4.0556927
-5.5110674 10.368264 4.0576138
-5.4481592 10.368354 4.0595322
-5.3926792 10.367671 4.0511227
-5.3297701 10.36776 4.0530415
-5.2742901 10.367075 4.044632
-5.2188101 10.366391 4.0362229
-5.1707516 10.364932 4.0174942
-5.1226997 10.363473 3.9987583
-5.0746417 10.362014 3.9800301
-5.019165 10.361229 3.9716232
-4.9711075 10.359771 3.9528949
-4.9156275 10.359086 3.9444854
-4.860147 10.358401 3.9360766
-4.8120894 10.356941 3.9173479
-4.756609 10.356256 3.9089389
-4.701129 10.355574 3.9005294
-4.6382198 10.355664 3.9024482
-4.5530419 10.35798 3.9353356
-4.4604321 10.361169 3.978548
-4.3900948 10.362034 3.9907939
-4.319767 10.362801 4.0030346
-4.2498741 10.363466 4.0146747
-4.1882854 10.362963 4.0147943
-4.1266999 10.362358 4.0149159
-4.0790796 10.360701 3.9955904
-4.0244818 10.359619 3.9859786
-3.9768667 10.357962 3.9666452
-3.9362373 10.355727 3.9375892
-3.8886175 10.354069 3.9182639
-3.8479881 10.351834 3.8892078
-3.8073585 10.3496 3.8601518
-3.7597485 10.347843 3.8408201
-3.7191188 10.345609 3.811764
-3.6714988 10.343951 3.792439
-3.6238847 10.342293 3.7731054
-3.5622954 10.341788 3.7732244
-3.5077009 10.340607 3.7636156
-3.4391208 10.34068 3.7734649
-3.3705511 10.340652 3.783309
-3.3019776 10.340724 3.7931499
-3.2403922 10.340119 3.793272
-3.1648281 10.340768 3.812844
-3.1032481 10.340163 3.8129575
-3.0207038 10.341288 3.8422542
-2.9311683 10.342988 3.8812814
-2.8486254 10.344214 3.9105678
-2.7870398 10.343611 3.9106896
-2.7324355 10.342528 3.9010859
-2.6708465 10.342025 3.9012051
-2.609261 10.341419 3.9013267
-2.526716 10.342545 3.9306235
-2.465127 10.34204 3.9307425
-2.3895726 10.342589 3.9503088
-2.3419526 10.340932 3.9309833
-2.2105074 10.345992 4.0283551
-2.1489184 10.345488 4.0284748
-2.0943198 10.344405 4.0188627
-2.0187593 10.344954 4.0384374
-1.9432049 10.345504 4.0580039
-1.8816156 10.344998 4.0581226
-1.827015 10.343817 4.048522
-1.7654257 10.343313 4.0486417
-1.7038367 10.342809 4.0487604
-1.6352668 10.34278 4.0586038
-1.5666971 10.342752 4.0684485
-1.5120921 10.34167 4.0588455
-1.4644785 10.340014 4.0395107
-1.4098735 10.338933 4.0299082
-1.3482884 10.338327 4.0300303
-1.2587593 10.34003 4.0690484
-1.1622386 10.342307 4.1177983
-1.1006497 10.341804 4.117918
-1.0460513 10.340721 4.1083055
-0.98446584 10.340117 4.1084275
-0.91589224 10.340188 4.118269
-0.84731591 10.340161 4.1281219
-0.79271781 10.339081 4.1185098
-0.72414786 10.339052 4.1283541
-0.66954356 10.337971 4.1187501
-0.58001381 10.339671 4.1577692
-0.50445324 10.340219 4.1773434
-0.43587989 10.340293 4.1871853
-0.37429458 10.339688 4.1873064
-0.31270552 10.339184 4.1874261
-0.25810069 10.338102 4.1778231
-0.1965211 10.337498 4.1779361
-0.13492632 10.336994 4.1780634
-0.080327749 10.335913 4.1684523
-0.018742442 10.335307 4.1685743
0.042847097 10.334803 4.1686935
0.097447634 10.333621 4.1590924
0.14506143 10.331964 4.1397586
0.19267631 10.330307 4.1204247
0.24728048 10.329225 4.1108212
0.29489434 10.327567 4.0914874
0.3425144 10.32591 4.0721626
0.39710915 10.324729 4.0625534
0.44472337 10.323072 4.04322
0.49932814 10.32199 4.0336175
0.54694194 10.320333 4.0142837
0.59456205 10.318674 3.9949574
0.64915675 10.317493 3.9853487
0.69677687 10.315836 3.9660234
0.74439108 10.314178 3.9466896
0.79200482 10.31252 3.9273565
0.84660959 10.311439 3.9177525
0.90121019 10.310259 3.9081514
0.95580924 10.309176 3.8985407
1.0104135 10.308095 3.8889375
1.0650121 10.307014 3.8793259
1.1196131 10.305833 3.8697257
1.1812023 10.305328 3.8698444
1.2427876 10.304725 3.869966
1.3253362 10.305949 3.8992605
1.4288368 10.308703 3.9577341
1.4974107 10.308775 3.9675763
1.5589961 10.30817 3.9676983
1.6135951 10.30709 3.9580872
1.6751842 10.306586 3.9582057
1.736769 10.305982 3.9583268
1.7843828 10.304323 3.9389935
1.8459718 10.303819 3.9391117
1.8935925 10.302161 3.9197879
1.9412024 10.300404 3.9004555
1.9958068 10.299323 3.8908525
2.0434215 10.297664 3.8715193
2.0910413 10.296005 3.8521941
2.1456399 10.294926 3.8425825
2.1862693 10.292691 3.8135264
2.2338796 10.290934 3.7941947
2.2884843 10.289852 3.7845917
2.329114 10.287618 3.7555356
2.3697436 10.285384 3.7264795
2.4173567 10.283727 3.7071452
2.464977 10.282068 3.68782
2.5195754 10.280987 3.6782084
2.5671902 10.279328 3.658875
2.6217899 10.278148 3.6492736
2.6763952 10.277068 3.6396711
2.724009 10.27541 3.6203372
2.7716229 10.273752 3.6010036
2.8192432 10.272094 3.5816784
2.8668535 10.270337 3.5623474
2.9144673 10.268679 3.5430124
2.9620876 10.267021 3.5236883
3.002717 10.264787 3.4946325
3.0503311 10.263129 3.4752979
3.090961 10.260896 3.4462419
3.1315899 10.258661 3.417186
3.1722198 10.256427 3.3881299
3.2058647 10.253615 3.3493524
3.2395029 10.250804 3.3105645
3.2731483 10.247994 3.2717872
3.3137779 10.24576 3.2427311
3.3474271 10.243049 3.2039499
3.3810654 10.240238 3.1651633
3.4147105 10.237427 3.1263847
3.4483559 10.234617 3.0876064
3.4819949 10.231806 3.0488203
3.5086544 10.228417 3.00032
3.5353127 10.22513 2.9518077
3.568958 10.222319 2.9130294
3.602603 10.219509 2.8742514
3.6292579 10.216122 2.8257427
3.6629026 10.21331 2.7869644
3.7035322 10.211076 2.7579081
3.7301908 10.207788 2.7093973
3.763835 10.204979 2.6706183
3.7974806 10.202167 2.6318409
3.8241343 10.198781 2.5833311
3.8577731 10.195969 2.5445445
3.884438 10.192681 2.4960425
3.9180765 10.189872 2.4572542
3.9447374 10.186483 2.4087548
3.9783757 10.183673 2.3699682
3.9980555 10.17981 2.3117423
4.0247107 10.176421 2.2632337
4.0443797 10.172457 2.2050025
4.0570693 10.168016 2.1370466
4.0767393 10.164053 2.078815
4.0894279 10.159613 2.0108585
4.0951233 10.154495 1.9331753
4.1147962 10.150632 1.8749413
4.120501 10.145616 1.7972636
4.1401706 10.14165 1.7390318
4.1458693 10.136634 1.6613455
4.1585546 10.132092 1.5933914
4.1712441 10.127652 1.5254359
4.1769419 10.122636 1.4477496
4.1826377 10.117519 1.3700652
4.1953263 10.113077 1.302109
4.1940403 10.107484 1.2147009
4.2067251 10.102943 1.1467476
4.1984558 10.096774 1.0496161
4.2181292 10.092909 0.99138188
4.2168393 10.087215 0.90397525
4.2225437 10.082198 0.82629776
4.2282419 10.077182 0.74861169
4.2339373 10.072064 0.67092705
4.225667 10.065895 0.57379603
4.2313714 10.060878 0.49611831
4.2300854 10.055283 0.40870929
4.2218151 10.049114 0.31157827
4.2135386 10.042943 0.21443844
4.2122526 10.037351 0.12702966
4.1830215 10.029449 0.00072312355
4.1677666 10.022703 -0.10613036
3.9219751 9.9974308 -0.53392267
3.93466 9.9928885 -0.60187626
3.828584 9.9788475 -0.83516574
3.7923727 9.9704704 -0.97119689
3.8050528 9.96593 -1.0391586
3.8037667 9.9603367 -1.1265669
-8.0661535 10.352797 2.8521035
-7.8918686 10.364311 3.008883
-7.710165 10.3765 3.1759849
-7.5210328 10.389464 3.3534136
-7.3319025 10.40253 3.5308316
-7.2095981 10.40862 3.6153431
-7.1244202 10.410935 3.6482303
-7.0466609 10.412576 3.6707959
-6.961483 10.414891 3.7036831
-6.891149 10.415657 3.7159312
-6.813396 10.417297 3.7384887
-6.7430682 10.418063 3.7507291
-6.6653128 10.419603 3.7732968
-6.5652838 10.423468 3.8268316
-6.4800997 10.425782 3.8597267
-6.3874993 10.428875 3.9029336
-6.3171678 10.429739 3.9151711
-6.2394123 10.43128 3.9377394
-6.1690817 10.432145 3.9499769
-6.0987482 10.43291 3.9622252
-6.0284204 10.433677 3.9744656
-5.9580898 10.434543 3.9867036
-5.8951874 10.434632 3.9886138
-5.8322821 10.434623 3.9905345
-5.7693734 10.434713 3.9924536
-5.6990461 10.435479 4.004694
-5.6361432 10.43557 4.0066042
-5.5732384 10.435559 4.0085249
-5.4954786 10.4372 4.0310907
-5.4400024 10.436416 4.0226836
-5.3771 10.436507 4.0245938
-5.3290415 10.435047 4.0058656
-5.2661428 10.435038 4.0077782
-5.2106628 10.434353 3.9993691
-5.1626043 10.432895 3.9806409
-5.1071243 10.432211 3.9722316
-5.0590668 10.430751 3.9535031
-5.0035901 10.429966 3.9450967
-4.9481096 10.429283 3.9366877
-4.9000578 10.427822 3.9179506
-4.8520002 10.426364 3.8992226
-4.8039417 10.424904 3.8804941
-4.7484713 10.424119 3.8720791
-4.6855631 10.42421 3.8739974
-4.6226578 10.424201 3.8759189
-4.5226288 10.428066 3.9294529
-4.4448695 10.429708 3.9520183
-4.3671198 10.431247 3.9745779
-4.3116393 10.430563 3.9661689
-4.2413063 10.431328 3.9784174
-4.1792793 10.431022 3.9791331
-4.1176996 10.430418 3.9792471
-4.0630989 10.429236 3.969646
-4.0084944 10.428154 3.960043
-3.9678645 10.42592 3.9309869
-3.9202509 10.424263 3.9116535
-3.8796215 10.422029 3.8825974
-3.8389916 10.419795 3.8535414
-3.7983623 10.417561 3.8244853
-3.7577326 10.415326 3.7954292
-3.7101185 10.413668 3.7760954
